# .PCD v0.7 - Point Cloud Data file format
VERSION 0.7
FIELDS x y z
SIZE 4 4 4
TYPE F F F
COUNT 1 1 1
WIDTH 1556
HEIGHT 1
VIEWPOINT 0 0 0 1 0 0 0
POINTS 1556
DATA ascii
114.26447 -61.741318 4.7403946
114.64848 -61.765316 6.0851946
114.25487 -61.736519 4.4547944
116.66368 -61.44212 5.9611936
116.16287 -61.514118 10.066794
114.21487 -61.758118 4.1227942
116.56927 -61.652519 7.087595
116.06688 -61.277321 8.3611946
114.62127 -61.773319 6.069994
114.39088 -61.463718 6.1411948
114.91647 -61.750919 8.2867937
115.04607 -61.706921 8.9131947
114.57088 -61.42292 7.5147939
114.66447 -61.45092 8.3091936
114.67808 -61.63332 8.8075943
116.17248 -61.52932 9.9451942
117.31967 -61.658916 3.130794
116.69247 -61.315716 7.7323947
114.11807 -61.539719 4.116395
114.61407 -61.783718 6.6627946
116.34846 -61.658916 8.9451942
116.96848 -61.68372 4.2995949
116.78608 -61.30772 6.1627946
116.32928 -61.446117 8.8035936
114.52207 -61.70052 7.2267947
114.40367 -61.789318 4.7339935
114.67487 -61.37492 7.2675939
116.46127 -61.580517 7.6443944
116.73968 -61.422119 5.3491945
116.75727 -61.602119 5.2163944
114.21568 -61.728519 4.4155946
116.24928 -61.510117 9.3011951
116.59087 -61.41972 6.4675937
114.67567 -61.619717 8.8091936
116.77087 -61.438919 5.053194
114.54448 -61.781319 6.3187947
115.87248 -61.678921 8.2611942
115.23408 -61.695721 10.445995
116.85328 -61.435719 4.3611937
116.61567 -61.720516 7.7379947
116.34608 -61.710117 9.5523949
114.67967 -61.378918 6.6827946
114.43887 -61.64452 6.6811938
117.21008 -61.668518 3.9259939
116.55247 -61.53492 6.8387942
116.83007 -61.301319 6.1411948
117.07248 -61.670918 3.3011947
114.14207 -61.443718 3.8395936
116.76368 -61.327721 5.9483948
115.92928 -61.466122 8.2035942
116.54927 -61.516521 6.4643941
114.23727 -61.623718 5.0947938
116.62287 -61.552517 6.2379947
115.45328 -61.678921 8.2347946
117.09887 -61.288521 3.9579947
116.37167 -61.646118 8.668395
116.41566 -61.415718 8.2019949
114.03807 -61.634918 3.3923938
116.13887 -61.58852 10.329994
114.30367 -61.791718 4.0251942
114.55647 -61.437317 7.3659945
115.67408 -61.651718 8.2315941
116.92928 -61.671719 4.4403944
114.69087 -61.735718 8.3755941
116.38608 -61.724518 9.4435949
114.74367 -61.448517 9.1243944
116.98768 -61.31332 4.0683947
114.36607 -61.776516 5.0675941
117.17248 -61.298119 3.8267946
116.99727 -61.701321 5.2419939
116.63887 -61.606121 6.2683949
116.51087 -61.586918 7.2003942
116.06127 -61.394119 8.1763954
116.02687 -61.586918 8.156394
116.79247 -61.490917 4.7819943
115.56287 -61.59972 8.1987953
116.88367 -61.70052 5.2547946
116.42687 -61.722118 9.1323948
114.74608 -61.410118 8.685195
114.40447 -61.789318 4.6875944
114.48447 -61.635719 7.1683946
116.31087 -61.694118 9.5155945
117.09887 -61.699718 3.9403944
116.73327 -61.510921 5.2603946
115.03728 -61.37492 10.552395
114.94048 -61.778118 9.1027946
115.17007 -61.742119 10.308394
116.67007 -61.715717 6.4379945
116.92607 -61.598919 3.8963945
116.89967 -61.710117 5.8443937
114.20367 -61.598919 4.8323946
116.97807 -61.322918 4.1235943
116.20207 -61.550121 9.7531939
114.02127 -61.50132 3.1315937
114.38048 -61.763718 3.7139938
114.22527 -61.780518 3.8627946
116.46528 -61.434917 7.6859941
116.56607 -61.646919 7.1859941
116.90447 -61.554119 3.9083936
114.06207 -61.486919 3.4611938
114.71327 -61.635719 9.1003942
115.52208 -61.742916 8.3299942
117.11247 -61.68372 3.2139938
114.98128 -61.37252 9.6659946
114.38607 -61.746918 3.5507936
114.85247 -61.434917 9.9395943
114.61807 -61.734921 7.7723942
114.44048 -61.396519 4.2875948
116.61247 -61.715717 8.6035938
114.36607 -61.787716 4.7299948
114.28767 -61.734119 4.9547944
115.95887 -61.413319 8.2547951
114.40688 -61.43652 6.1227937
114.61488 -61.755718 7.5067949
114.59567 -61.753319 5.4595947
114.15568 -61.386917 3.0363939
116.56528 -61.721317 8.8619938
116.89967 -61.310116 5.0131946
114.25487 -61.385319 3.9203939
117.00047 -61.702919 4.5891938
114.76848 -61.763718 7.1723943
114.55407 -61.37492 6.2867937
114.15968 -61.755718 3.7379947
116.78767 -61.590919 4.9875946
116.30927 -61.619717 9.0459948
115.61967 -61.666119 8.2291946
116.56367 -61.66132 7.2003942
116.11247 -61.448517 10.611594
116.66688 -61.476517 5.7939949
116.15247 -61.462917 10.209995
115.02847 -61.752518 9.2267952
116.99248 -61.314919 4.0019946
116.85328 -61.712521 6.1027937
114.63647 -61.851719 6.5075946
116.09327 -61.576519 10.618794
116.44447 -61.528519 7.6883945
114.44287 -61.752518 6.1051946
114.90047 -61.775719 9.3875952
116.50367 -61.569317 7.2651949
114.26287 -61.390118 4.1587939
117.00047 -61.692516 5.4547944
117.11087 -61.665318 4.8787937
114.50368 -61.709316 6.9859943
114.82368 -61.723721 6.4683948
114.06847 -61.669319 3.5515947
114.87007 -61.41972 9.914794
114.91167 -61.712521 10.400394
114.80048 -61.407719 7.087595
114.42448 -61.54052 6.7059941
114.65887 -61.668518 8.5059938
116.29088 -61.431717 9.1883945
114.91007 -61.410919 10.081995
114.48847 -61.694118 6.9891939
116.54527 -61.520519 6.8667941
116.21888 -61.694118 10.261993
117.03088 -61.664516 3.4875944
114.45888 -61.37812 5.0043945
116.02287 -61.698116 8.2675934
115.05007 -61.752518 8.322794
114.42368 -61.386917 5.5011945
115.07327 -61.737316 9.403594
114.34287 -61.772518 3.5363939
114.54688 -61.75732 6.8803935
114.28368 -61.631718 5.4835939
114.49648 -61.404518 6.6395936
114.17327 -61.398117 3.5531938
115.02927 -61.642117 8.2107944
114.03728 -61.694118 3.1579947
115.07327 -61.759716 8.4571953
114.22607 -61.659718 4.8611937
114.86047 -61.390919 9.3819952
116.88927 -61.494919 3.9739947
116.69247 -61.34132 6.167594
114.43648 -61.630119 6.8147936
117.02048 -61.38932 3.0835941
116.19007 -61.65012 10.209995
116.81487 -61.704517 5.8771944
114.63007 -61.724518 7.9163942
114.40847 -61.446918 6.1835942
114.69008 -61.522919 9.013195
116.68768 -61.34692 8.4131947
114.19647 -61.600521 4.7707944
116.93647 -61.554119 3.6763945
114.30048 -61.742119 5.0291944
114.88607 -61.37492 9.5947943
117.04607 -61.668518 3.4243944
114.70448 -61.774918 7.636394
116.96368 -61.294918 4.9683948
115.78368 -61.492519 8.2171936
114.79647 -61.778919 7.8419943
117.03167 -61.300518 4.885994
115.48847 -61.729321 8.2947941
116.57087 -61.542118 6.7003942
116.68367 -61.410118 8.9747953
114.03887 -61.635719 3.378794
114.80048 -61.398117 7.2187943
116.37967 -61.657318 8.5619936
116.94687 -61.562119 3.5875945
114.38527 -61.722118 5.883594
116.61327 -61.674118 7.0259938
116.02687 -61.311718 8.2963943
114.47567 -61.783718 5.725194
116.33807 -61.390919 9.0251942
116.43647 -61.637318 8.0595951
116.81567 -61.317318 5.6027937
114.34847 -61.43972 5.6027937
114.97167 -61.739719 10.624394
115.77568 -61.694118 8.2563934
116.31567 -61.382919 9.2899961
117.14928 -61.698917 3.5331938
115.51167 -61.350121 8.4027939
117.00288 -61.686119 5.564394
114.58447 -61.463718 7.9043951
114.09567 -61.712521 3.578794
115.50768 -61.74612 8.329195
114.10287 -61.486919 3.7771945
114.80527 -61.782116 8.3251944
115.04607 -61.386917 9.3811941
114.33167 -61.787716 4.4939947
114.80847 -61.781319 8.1171942
116.31407 -61.377319 9.3547945
114.53247 -61.771721 6.4579945
116.59007 -61.614117 6.7051945
114.95407 -61.750919 8.4995947
116.80527 -61.629318 5.0651946
115.73807 -61.514118 8.1947937
116.70448 -61.518917 5.509995
114.67647 -61.415718 8.3147936
114.23567 -61.70052 4.8051949
116.78527 -61.595718 5.0347943
115.18367 -61.694118 9.9987946
114.88287 -61.76852 8.4883947
114.30367 -61.37812 3.9411948
115.79327 -61.747719 8.4195938
117.08928 -61.36132 5.3699937
114.40208 -61.77972 5.2651944
114.44608 -61.783718 4.7427945
115.14687 -61.537319 8.1971941
114.30927 -61.525318 5.7275939
116.22368 -61.597317 9.6427946
114.19567 -61.734921 4.2323947
114.25967 -61.384518 3.2291944
116.51807 -61.659718 7.5571947
116.77888 -61.606918 5.1299949
114.59087 -61.764519 5.6035938
114.80208 -61.570919 9.9187946
116.98127 -61.678921 4.150794
116.94687 -61.475719 3.477994
116.39808 -61.52372 8.064394
116.79967 -61.414917 4.889194
116.90607 -61.705318 5.2683945
116.25168 -61.556519 9.2979937
114.10127 -61.46772 3.6331937
114.18447 -61.613319 4.7347946
116.99727 -61.696518 4.3739948
117.01567 -61.322918 3.6731939
117.10367 -61.288521 3.6235945
116.51888 -61.56612 7.1395936
114.24847 -61.628521 5.1827946
114.62688 -61.396519 7.4443941
116.28767 -61.558117 9.0323944
115.94207 -61.34132 8.3371954
116.05727 -61.514118 8.156394
116.44207 -61.718918 8.3323946
114.78607 -61.66132 9.5403948
114.70287 -61.775719 7.4675937
116.20688 -61.538921 9.6883945
116.54527 -61.600521 6.4803934
114.22288 -61.489319 4.8211946
114.29647 -61.775719 4.5419941
114.16768 -61.698917 4.2459946
116.57327 -61.418919 6.5203938
116.65567 -61.322918 7.0675936
116.72688 -61.41172 5.515595
116.31567 -61.595718 8.8683949
117.10047 -61.699718 3.8467948
116.91808 -61.68932 4.7731938
114.70367 -61.426117 8.6595955
114.17567 -61.651718 4.4971938
114.82527 -61.546917 10.209995
114.01408 -61.492519 3.0643938
114.29647 -61.789318 4.1299949
114.31007 -61.729321 5.1955948
116.48367 -61.36372 8.0003939
114.45247 -61.58292 7.0691943
114.26128 -61.791718 3.7755938
116.19807 -61.360516 10.538795
116.71168 -61.648518 6.0171938
116.94847 -61.707718 5.3291945
117.21087 -61.660519 4.0995951
116.42207 -61.482922 7.906795
114.54448 -61.677319 7.5403948
116.83327 -61.649319 5.0219946
116.92607 -61.486919 3.667594
116.99167 -61.565319 3.2299948
116.43727 -61.705318 8.7091942
114.39088 -61.606918 6.6251941
116.94048 -61.225319 5.3827949
116.28527 -61.733318 10.500394
114.51087 -61.78532 5.8851948
114.29887 -61.766121 4.6995945
114.43568 -61.431717 6.2843938
116.29727 -61.707718 8.329195
114.52367 -61.747719 4.7955947
114.90767 -61.772518 8.6043949
115.96127 -61.742916 8.3451939
116.71648 -61.507717 5.3579946
114.83568 -61.401318 9.3947945
114.33568 -61.503719 5.9011946
117.25727 -61.679718 3.3299949
117.00127 -61.68932 5.5091939
116.83647 -61.617321 4.7643938
116.75407 -61.343716 7.7211947
114.15648 -61.786118 3.2211947
114.45647 -61.673321 6.8251939
114.18847 -61.595718 4.7059937
114.36208 -61.449318 5.8747945
115.39088 -61.738918 8.2987947
116.36528 -61.337318 9.4579945
114.47727 -61.754116 6.3795948
114.76287 -61.373318 7.5195942
113.99487 -61.629318 3.0419939
117.37807 -61.192516 3.0323946
116.55087 -61.31892 8.8123951
116.77647 -61.611721 5.1779938
116.81567 -61.44532 4.6467948
116.56528 -61.722118 8.7907944
116.32127 -61.721317 9.8851948
114.42687 -61.377319 5.1075945
116.94847 -61.707718 5.3811936
114.67808 -61.565319 8.8731937
114.39168 -61.79092 4.6027937
114.09727 -61.483719 3.7171938
116.93806 -61.657318 4.2075949
116.96687 -61.609318 3.6219947
115.09727 -61.766121 10.079595
114.83807 -61.58292 10.224395
114.77647 -61.59412 9.656394
114.01328 -61.51252 3.1043947
116.82048 -61.370117 7.6131945
116.92447 -61.31332 4.8875942
114.76367 -61.36932 7.7155948
114.60048 -61.385319 6.9459949
114.46207 -61.716518 6.4187946
116.61888 -61.645321 6.4083943
116.43887 -61.49012 7.7619939
114.24448 -61.507717 5.1027937
114.36768 -61.763718 5.3187943
115.05807 -61.745319 9.5235949
116.32848 -61.326118 10.470795
114.72688 -61.774918 7.2331944
116.85008 -61.714119 6.3795948
116.83327 -61.310921 5.6203942
114.30608 -61.735718 5.1771946
114.69008 -61.742119 8.3027945
116.80848 -61.366119 5.0243945
114.76607 -61.770119 7.2867937
114.73488 -61.75732 6.762795
114.96047 -61.395718 8.2939949
116.27408 -61.367718 9.8243942
114.94207 -61.777321 9.0315933
116.94608 -61.308517 4.9267945
114.91647 -61.726116 7.9371953
114.37647 -61.686916 6.5187945
114.39327 -61.674919 6.3723936
114.67567 -61.37492 7.3475943
116.87487 -61.68372 5.0163946
116.25727 -61.39732 9.6323948
114.75967 -61.548519 9.5547943
114.27567 -61.640518 5.4827948
117.00848 -61.344521 3.5971937
114.36607 -61.575718 6.2435946
114.91647 -61.690918 10.592394
114.72527 -61.637318 9.2227936
114.68847 -61.782921 7.0227938
116.45087 -61.515717 7.6355944
114.29488 -61.46772 5.3363938
114.23167 -61.746918 4.3587937
116.47327 -61.724518 9.6315937
114.03887 -61.57412 3.4275939
116.83007 -61.602119 4.6923938
116.54687 -61.336517 9.3635941
114.25487 -61.332516 3.2723937
114.21407 -61.422119 4.2675943
116.57728 -61.637318 6.9211946
116.38927 -61.390118 9.305994
114.14767 -61.480518 4.1187944
115.27967 -61.302917 8.3659945
116.78847 -61.674118 5.5659947
116.81967 -61.697319 5.6683946
114.46928 -61.710117 6.6875949
116.45887 -61.367718 8.7339935
116.24287 -61.66132 9.8299942
114.55167 -61.826118 6.5067949
116.96288 -61.294918 5.0979939
114.80208 -61.77412 8.6427946
114.47487 -61.778919 5.8827949
114.33968 -61.781319 3.7027938
117.01888 -61.347717 3.4683948
116.39326 -61.714119 9.1587944
116.24767 -61.35252 10.250793
114.13167 -61.758118 3.4547946
116.74047 -61.35252 5.7939949
114.55167 -61.496517 7.6635942
114.37888 -61.68932 6.0827947
115.77248 -61.598118 8.1987953
116.75168 -61.309319 6.7563939
116.63567 -61.437317 6.1979938
116.98768 -61.706921 4.8635945
114.36928 -61.789318 4.317194
114.69247 -61.776516 6.797194
116.53407 -61.527721 6.977994
114.18047 -61.624519 4.6043949
114.44527 -61.730919 6.5035939
114.83167 -61.778919 8.1091938
117.09808 -61.698917 4.2723937
117.17408 -61.306118 3.9611938
114.13087 -61.710117 3.8843939
114.36607 -61.788521 4.6827946
116.61567 -61.24612 8.4603949
114.83247 -61.51812 10.093195
116.14527 -61.608517 10.356394
114.43967 -61.780518 5.5691948
116.43568 -61.722118 9.024395
114.67888 -61.578121 8.7763948
116.25407 -61.360516 10.093195
114.65327 -61.783718 6.7843938
114.28928 -61.465317 5.2707944
116.95727 -61.682117 6.038794
114.30447 -61.535717 5.6683946
114.87167 -61.320518 7.6963949
114.29807 -61.531719 5.6019945
114.21807 -61.55172 4.9523945
114.22847 -61.712521 4.5571947
117.21487 -61.658119 4.0259943
116.29408 -61.716518 10.405994
116.02127 -61.650921 8.185195
114.78847 -61.373318 8.1955948
116.31168 -61.70052 9.7675934
114.84847 -61.767719 8.6923943
114.51967 -61.592518 7.5283937
114.36768 -61.760517 5.3699937
114.51807 -61.68372 7.2875948
115.18847 -61.761318 8.4219942
114.63408 -61.531719 8.5491943
114.34847 -61.756519 3.3323946
114.36848 -61.293316 3.8427947
114.72207 -61.754917 8.4339943
117.15567 -61.677319 4.2931948
115.29247 -61.490917 8.1899958
116.91087 -61.466122 3.7675941
114.87647 -61.730118 9.5043945
116.65648 -61.371719 6.3739948
116.90767 -61.702919 5.167594
114.47167 -61.58532 7.093195
114.86367 -61.776516 9.081995
114.62527 -61.415718 7.9291949
117.09887 -61.70052 3.9867938
116.19408 -61.477322 9.811594
116.77967 -61.687717 5.822794
116.75648 -61.719719 6.9251943
114.17567 -61.527721 4.5627947
114.24928 -61.38052 3.5123947
114.19008 -61.79092 3.3459947
115.05167 -61.776516 10.545995
117.01567 -61.664516 3.6963947
114.29967 -61.718918 5.1939945
115.95328 -61.735718 8.3331947
117.11728 -61.292519 3.2931948
116.74207 -61.584518 5.3379946
116.46927 -61.665318 7.9843936
114.81087 -61.634918 9.8795948
116.49167 -61.70612 8.2931948
114.47647 -61.765316 6.2099948
116.75407 -61.38052 5.3971939
114.41808 -61.45332 6.3283939
117.01488 -61.69492 4.5179944
115.10687 -61.718121 8.2667942
114.35327 -61.442917 5.6691947
116.82368 -61.524517 4.5267944
116.66047 -61.735718 6.4795947
116.37248 -61.607719 8.2051945
116.25967 -61.702919 10.029195
114.62927 -61.760517 7.4931951
117.00927 -61.675716 3.889194
114.75487 -61.698116 6.3611937
114.71967 -61.782116 7.5947943
114.26927 -61.782116 3.0683947
114.66527 -61.387718 7.4163942
116.55328 -61.504517 6.8203936
114.25167 -61.716518 4.6891937
115.17327 -61.36132 10.235595
114.40128 -61.752518 5.4539948
114.28527 -61.589321 5.544394
115.30287 -61.326916 8.2723942
116.56447 -61.351719 7.4099951
114.06607 -61.526917 3.5995948
116.34687 -61.323719 8.3843937
116.70287 -61.338921 6.2803941
114.90208 -61.781319 8.9451942
116.24367 -61.646118 9.6835938
114.12927 -61.722118 3.7923937
116.56847 -61.47332 6.394794
114.11568 -61.554916 4.0811939
114.72127 -61.76292 8.2931948
115.12127 -61.735718 8.2899961
117.06927 -61.675716 3.389194
114.55247 -61.786118 6.0739946
114.77168 -61.770916 6.4803934
114.72047 -61.76852 8.1547947
116.14847 -61.386917 10.605194
114.40288 -61.426918 6.1635947
116.92127 -61.622921 4.0883951
114.35088 -61.778919 3.8011947
114.31328 -61.602917 5.6747947
114.01408 -61.62212 3.2003939
116.73327 -61.349316 5.941195
114.14367 -61.635719 4.2739944
115.27087 -61.331718 8.4659948
114.15727 -61.771721 3.5179946
114.09807 -61.699718 3.6691947
114.09887 -61.692516 3.7155948
114.21168 -61.664516 4.7363939
114.09087 -61.746918 3.2707946
116.32207 -61.673321 9.2387943
116.31487 -61.582119 8.8003941
116.26767 -61.542118 9.1435947
114.58687 -61.570118 8.185195
114.01087 -61.494919 3.0163946
114.75327 -61.662121 9.3419943
116.40927 -61.32452 9.5219946
115.95008 -61.742119 8.4363937
114.07887 -61.713318 3.4043949
116.77327 -61.61652 5.2267947
116.32048 -61.586918 8.805994
114.57967 -61.760517 7.1339936
114.62927 -61.49572 8.4011955
114.60527 -61.47892 8.1523943
114.50208 -61.707718 7.1499944
116.21247 -61.322121 10.600394
114.22207 -61.794918 3.1699939
114.33167 -61.790119 4.3571949
114.09007 -61.662918 3.7595947
116.91487 -61.693317 4.8707943
114.83807 -61.764519 7.8011951
117.10127 -61.698917 3.7547946
116.62287 -61.687717 8.9835939
114.42047 -61.750919 3.8971937
116.00768 -61.426117 8.2083941
116.67007 -61.631718 6.1507936
116.51967 -61.725319 9.127594
114.39487 -61.40852 5.6787939
114.36687 -61.789318 4.636394
114.45407 -61.377319 5.441195
116.85887 -61.63332 4.6355948
114.57887 -61.563717 8.0971947
116.86447 -61.693317 6.7675939
116.26368 -61.607719 9.3467941
116.27327 -61.67812 9.6667938
115.47887 -61.394119 8.2635946
114.34608 -61.37812 4.3003941
114.54527 -61.469318 7.5211949
114.06287 -61.618919 3.636394
116.46848 -61.52932 7.412395
114.40688 -61.415718 5.8771944
114.70207 -61.752518 6.423595
116.82368 -61.708519 6.6579943
114.05807 -61.739719 3.0651946
117.15807 -61.68932 3.0403948
116.85808 -61.708519 5.6731939
114.08208 -61.474117 3.5395937
117.01328 -61.584518 3.1635947
114.64767 -61.574917 8.7035942
116.86848 -61.710918 6.1523948
116.41008 -61.322918 10.049194
114.90767 -61.451717 10.532394
116.29887 -61.53492 8.9115944
115.04128 -61.366119 10.206795
116.60527 -61.34132 7.2603946
114.68208 -61.646919 8.8283939
116.22928 -61.639721 9.8203936
114.87247 -61.560516 10.629994
114.73087 -61.437317 9.0043945
116.63087 -61.316521 7.8955946
116.91647 -61.613319 4.0811939
116.21807 -61.710117 10.647594
114.74367 -61.39172 8.4051943
114.39887 -61.638119 6.3355947
116.26208 -61.58292 9.1987953
116.62447 -61.670918 6.8987947
116.43727 -61.636517 8.1595955
116.70527 -61.567719 5.5987949
114.97327 -61.771721 10.056394
117.21487 -61.635719 4.3003941
114.43488 -61.398117 5.7635946
115.05487 -61.693317 8.2403946
117.01328 -61.611721 3.2643938
114.48128 -61.782116 5.0331936
114.62127 -61.767719 7.1267948
114.88607 -61.701321 10.186794
116.95087 -61.697319 5.811594
117.04687 -61.702118 4.6491947
114.70927 -61.654118 9.0099945
116.33727 -61.31892 10.143595
116.97887 -61.334118 3.9827948
116.71967 -61.612518 5.6739945
115.48528 -61.475719 8.2091942
116.76287 -61.263718 6.5299945
116.98127 -61.703716 5.3603945
114.74367 -61.746918 8.5867939
116.21407 -61.67252 10.141194
114.09248 -61.739719 3.3571947
116.11967 -61.62772 10.615595
114.32448 -61.77972 3.7723937
114.57967 -61.763718 7.0723939
114.22607 -61.766121 4.1323948
114.31168 -61.477322 5.5331941
116.63567 -61.720516 8.087595
114.15807 -61.558117 4.5515947
114.22768 -61.749317 4.3643937
114.95087 -61.756519 8.6307945
114.90767 -61.710918 10.309995
116.73567 -61.642918 5.7659945
114.01167 -61.558918 3.192394
116.97327 -61.676517 4.1595945
116.90047 -61.463718 3.9219947
116.87007 -61.667721 4.9883947
114.97567 -61.780518 9.5571947
114.58447 -61.395718 7.064394
114.97247 -61.766918 10.168395
116.50207 -61.449318 7.3243947
116.59327 -61.607719 6.6523943
114.38048 -61.516521 6.2795949
114.09007 -61.754917 3.1851947
114.54448 -61.782921 6.2635946
114.55807 -61.37812 5.6299949
114.85247 -61.76292 8.3851948
116.08127 -61.56292 8.1267948
116.76047 -61.726116 6.4435945
115.97248 -61.466122 8.2099953
116.86368 -61.591717 4.4043946
117.10207 -61.697319 3.7083938
116.82048 -61.31892 5.5339937
114.62927 -61.752518 5.7707944
116.54128 -61.610119 7.1275935
114.11327 -61.470917 3.7539947
116.83408 -61.38612 4.7139935
114.59727 -61.747719 5.4131947
116.31567 -61.692516 8.4923935
116.57408 -61.614918 6.8619938
116.73007 -61.606918 5.5323949
114.11407 -61.70052 3.8083937
114.87087 -61.77412 8.3219948
116.80927 -61.682117 7.0403948
115.02448 -61.76292 9.3635941
115.05807 -61.773319 9.9003944
114.50687 -61.647717 7.322794
114.74928 -61.382118 7.3139939
114.58208 -61.569317 8.0619936
116.56607 -61.657318 7.1435947
114.88847 -61.710117 10.184394
116.10367 -61.565319 10.585995
116.93327 -61.50132 3.6051948
115.03967 -61.370918 10.487595
116.40848 -61.330917 10.329994
117.10927 -61.290119 3.4907947
116.60448 -61.366119 6.9051943
116.15968 -61.58852 10.093994
116.50848 -61.592518 7.2899957
116.33408 -61.650921 8.972394
114.56287 -61.43652 7.5771947
114.18527 -61.718918 4.2443938
116.24128 -61.718918 8.472394
114.18127 -61.591717 4.6427946
116.89088 -61.578121 4.0851946
116.90767 -61.547718 3.8643939
116.25727 -61.63332 9.4331942
116.53327 -61.562119 7.0139942
114.26287 -61.793316 3.477994
114.24928 -61.592518 5.2339935
114.43407 -61.487717 6.6299944
116.71728 -61.548519 5.4315939
114.27727 -61.584518 5.4771943
114.38767 -61.741318 3.5107946
116.49887 -61.693317 8.0395937
116.76447 -61.538116 5.0051947
114.55727 -61.764519 5.2979937
116.83568 -61.316521 5.1651945
114.04527 -61.701321 3.2203939
114.92287 -61.466122 7.6355944
116.87086 -61.52932 4.147594
114.07727 -61.666119 3.641994
116.53728 -61.719719 8.2891941
114.73247 -61.749317 8.4571953
114.88847 -61.480518 10.585995
114.69887 -61.576519 9.0451937
114.38367 -61.639721 6.2763944
116.38207 -61.730118 9.6651955
114.46848 -61.718918 4.0051947
114.46687 -61.731716 6.2611938
116.86528 -61.31332 5.3019943
116.63968 -61.36132 6.6691942
116.52528 -61.558918 7.0747952
114.85887 -61.77412 10.428394
114.90128 -61.370918 9.1051941
115.03008 -61.376518 10.605994
116.77248 -61.375717 5.2723937
114.30048 -61.38612 4.3299952
114.80527 -61.63332 9.8571949
116.73007 -61.348518 5.9323945
116.64527 -61.718121 7.4619937
114.37007 -61.788521 4.2723937
114.13487 -61.49012 4.1011944
114.22527 -61.782921 3.8187945
116.65648 -61.40292 6.1227937
114.29567 -61.410118 4.8323946
116.48528 -61.542118 7.3779941
116.27568 -61.42532 9.3443947
114.85648 -61.572521 10.449195
114.75648 -61.770916 8.4283943
114.54607 -61.549316 7.745995
114.52448 -61.62212 7.5059938
114.71967 -61.778919 7.8875952
117.11087 -61.692516 3.4059939
114.67168 -61.392517 7.7539949
116.74608 -61.354118 5.7259941
114.32527 -61.782921 4.0131946
116.76848 -61.705318 6.2475939
116.23888 -61.734119 8.3611946
114.52207 -61.767719 5.0467949
116.22527 -61.450119 9.6267948
116.98367 -61.636517 3.6555936
114.26848 -61.783718 3.1083941
116.77007 -61.680519 7.7555943
114.23167 -61.725319 4.6051946
114.95247 -61.388519 10.302794
116.43167 -61.714119 9.3003941
114.51007 -61.763718 6.6571946
114.49887 -61.570118 7.412395
116.83327 -61.744518 6.5843935
116.36047 -61.39492 8.8083944
114.12288 -61.774918 3.1811938
114.49007 -61.502918 7.2043948
116.63968 -61.663719 6.6259937
114.44207 -61.731716 6.0763946
115.14527 -61.738117 10.045194
114.35728 -61.38612 4.9099946
116.70767 -61.404518 5.7195935
116.98207 -61.698917 4.6483946
116.28207 -61.569317 9.0923939
114.47327 -61.452518 6.7755938
116.94207 -61.650921 4.1155949
114.39407 -61.788521 4.4115939
116.78127 -61.306118 6.3051949
114.97487 -61.77972 9.7107944
114.35007 -61.765316 3.4723938
116.96046 -61.299721 5.4883947
114.68447 -61.37812 6.8547945
114.81807 -61.517319 9.995594
114.75807 -61.48452 9.3723946
116.38287 -61.728519 9.5907946
117.09087 -61.334118 5.1059937
117.25407 -61.68932 3.0555942
116.23888 -61.652519 9.7931948
114.12288 -61.777321 3.1387937
116.21888 -61.619717 9.6947937
116.94288 -61.483719 3.5203941
114.25648 -61.38612 3.9795947
116.69807 -61.525318 5.5923939
116.46368 -61.362118 10.221195
114.17407 -61.777321 3.4715946
117.15168 -61.697319 3.3067946
114.57407 -61.446918 7.5899959
114.88927 -61.69492 10.301994
115.05888 -61.761318 9.8643942
114.12288 -61.558918 4.1427946
116.24608 -61.390118 9.7819948
116.75008 -61.698917 7.6859941
114.54688 -61.739719 7.087595
114.55647 -61.674118 7.6387944
114.44048 -61.549316 6.8507938
114.19647 -61.725319 4.3275938
115.01807 -61.775719 9.6515951
116.12287 -61.432518 10.637196
117.10527 -61.698116 3.6963947
115.17487 -61.654919 9.7443943
116.90848 -61.684521 6.4139943
114.57967 -61.617321 8.0539951
116.52287 -61.693317 9.8091936
114.33247 -61.79092 4.311594
116.47248 -61.726116 9.5539951
114.62367 -61.410919 7.6779943
116.49327 -61.620518 7.5131946
116.50688 -61.678921 7.8451939
114.83007 -61.662918 10.100394
116.91808 -61.613319 4.0307941
116.68768 -61.457317 5.7203941
114.52287 -61.586117 7.6515951
115.31888 -61.498119 8.1435947
116.34846 -61.728519 8.3579941
114.29327 -61.645321 5.6091938
114.30287 -61.722118 5.2347946
117.01167 -61.688519 4.0683947
115.43088 -61.739719 8.3107948
117.21888 -61.65012 4.0771942
116.35328 -61.649319 8.8283939
115.07088 -61.743717 9.4715948
113.99168 -61.569317 3.0587938
117.09648 -61.698917 4.3243942
114.79488 -61.538921 9.9155951
116.80047 -61.654118 5.2667937
114.79088 -61.62772 9.7947941
114.45168 -61.33012 4.9427948
114.84688 -61.406918 9.5659943
114.46207 -61.516521 7.0827947
116.52127 -61.718918 9.3547945
114.65407 -61.744518 7.9643941
114.32527 -61.654919 5.8619943
117.01247 -61.65572 6.5195942
114.74528 -61.375717 7.7187948
116.52367 -61.725319 8.6307945
114.35567 -61.596519 6.2595944
116.27807 -61.494122 9.1139946
116.68687 -61.357319 8.5515947
116.38927 -61.719719 9.2995949
114.66447 -61.614117 8.7243948
113.99407 -61.558918 3.0811937
115.29808 -61.782116 8.5043945
116.26688 -61.68932 9.8091936
114.33807 -61.784519 3.7867937
114.54207 -61.536518 7.7675939
114.68367 -61.730919 8.3043947
117.02847 -61.210918 4.9091935
116.93088 -61.669319 4.3931947
114.94048 -61.401318 10.387595
114.45407 -61.410919 6.1931949
114.57407 -61.552517 8.0515947
116.15407 -61.684521 8.2563934
116.72928 -61.47332 5.3147941
114.18208 -61.781319 3.4491947
114.15727 -61.79092 3.0555942
114.55807 -61.734921 7.0747952
116.54607 -61.692516 7.6691942
114.54527 -61.78532 6.1019945
114.75247 -61.450119 9.1115942
115.30447 -61.731716 8.237195
115.18687 -61.766918 8.3491945
114.54448 -61.696518 4.5211945
116.96127 -61.29652 5.3579946
114.12288 -61.543716 4.2123947
114.57887 -61.774918 6.8323946
116.88287 -61.47332 4.0163946
116.53327 -61.710918 8.5275936
114.73408 -61.40292 8.7635946
117.01888 -61.67812 3.8387938
114.37807 -61.602917 6.3603945
114.19087 -61.536518 4.6971936
114.45168 -61.469318 6.7355943
117.03008 -61.66132 3.5235946
114.80847 -61.385319 8.897994
116.98286 -61.572521 3.3547945
114.44447 -61.786118 4.8347945
114.61327 -61.589321 8.3707952
114.32848 -61.613319 5.885994
115.66767 -61.75172 8.3755941
114.48847 -61.43412 6.7715945
115.87888 -61.737316 8.4571953
114.80527 -61.42292 9.3939943
116.21487 -61.710117 10.545995
116.98448 -61.44212 3.2123945
116.76208 -61.699718 7.5499945
117.10767 -61.690918 3.3915937
114.63967 -61.782921 6.4771943
116.18448 -61.586918 9.9475937
116.86447 -61.686916 6.8715944
116.49887 -61.539719 7.2947941
114.61327 -61.782921 6.7763948
114.33327 -61.79092 4.2219944
114.87087 -61.75172 9.4755936
114.87487 -61.765316 8.1323948
115.49407 -61.463718 8.2115936
114.41328 -61.772518 4.1515951
116.91888 -61.526917 3.7331939
117.16688 -61.654118 4.4995947
116.79408 -61.38612 5.0619941
116.93727 -61.297318 5.0091934
114.70927 -61.730919 6.2211947
116.49488 -61.522919 7.2707949
114.88367 -61.427719 10.093994
114.89727 -61.434917 10.275594
114.12527 -61.65572 4.084394
116.90047 -61.70612 6.064394
114.30767 -61.649319 5.7355947
116.81567 -61.539719 4.6171937
115.07247 -61.758919 10.604395
116.99887 -61.340519 3.7259939
114.36768 -61.79092 4.4971938
116.34047 -61.386917 9.0403948
114.18288 -61.403717 3.7291944
116.57807 -61.710918 7.730794
114.52927 -61.461319 7.3563938
116.88768 -61.603718 4.2651949
114.39487 -61.714916 3.353194
114.38448 -61.753319 5.5811939
114.19087 -61.794121 3.1387937
114.20528 -61.674919 4.6747947
114.17007 -61.791718 2.977994
116.75727 -61.658916 5.653194
115.01328 -61.773319 10.369194
116.84207 -61.662918 5.0179944
117.11407 -61.291718 3.358794
114.39088 -61.631718 6.504395
113.99088 -61.608517 3.0251939
116.74047 -61.67252 5.9283938
114.97487 -61.76852 10.197194
115.80287 -61.727718 8.3043947
114.04527 -61.45332 3.0755937
117.04927 -61.691719 5.0035934
114.52687 -61.754116 4.8643937
116.34687 -61.520519 8.1899958
116.09407 -61.727718 8.2019949
114.51967 -61.429317 7.1019945
114.66048 -61.71172 8.3219948
114.68527 -61.775719 7.6923938
116.48608 -61.714119 8.4883947
116.49968 -61.583721 7.3491945
114.63728 -61.730919 5.5803938
114.47727 -61.786919 5.3715944
116.98608 -61.693317 4.311594
114.37647 -61.544521 6.3595948
116.82527 -61.502918 4.5059938
114.77407 -61.680519 9.4435949
114.65087 -61.783718 7.0139942
116.75168 -61.331718 7.5811939
116.30128 -61.731716 8.4059944
117.05407 -61.681316 5.1627946
114.07727 -61.471722 3.4811938
114.51007 -61.783718 5.9907947
116.87888 -61.40292 4.2515945
115.07167 -61.772518 10.065195
114.19247 -61.759716 3.9555938
114.45487 -61.682919 6.7603946
115.23327 -61.631718 8.2091942
116.98608 -61.707718 4.9619942
115.80608 -61.36132 8.3139944
114.73567 -61.598118 9.5235949
116.28687 -61.498119 9.0371952
116.44048 -61.537319 7.7435946
114.97167 -61.747719 10.509193
114.21087 -61.642117 4.8331938
114.33968 -61.716518 5.5923939
114.89568 -61.681316 10.440395
114.12207 -61.782921 3.0147936
117.04128 -61.302917 3.8219945
116.93407 -61.690918 5.5819945
114.58208 -61.784519 6.1091938
114.62207 -61.53492 8.3731937
116.66528 -61.63892 6.1755939
116.52287 -61.718121 9.3611946
114.71407 -61.415718 8.5499945
114.17327 -61.774918 3.5163946
114.14448 -61.414917 3.7179945
116.73888 -61.396519 5.5171938
114.47167 -61.676517 6.8987947
113.99887 -61.550919 3.0763948
116.76927 -61.252518 8.5371952
114.53807 -61.326118 5.475594
114.85247 -61.410118 9.6523943
116.58527 -61.619717 6.7931948
116.63087 -61.498917 6.1339936
115.01967 -61.773319 9.5779943
114.43967 -61.401318 5.9059939
114.90607 -61.774918 8.6707954
116.18527 -61.42532 10.075594
114.35648 -61.418118 5.3611937
114.79967 -61.37812 8.4099951
115.66927 -61.731716 8.3091936
116.15087 -61.404518 10.528394
114.89008 -61.651718 10.541195
114.33488 -61.789318 4.0019946
116.90927 -61.349316 4.3219948
114.36687 -61.602119 6.2467947
114.32047 -61.423717 5.2123947
114.70528 -61.38612 6.389194
114.48207 -61.723721 6.7363939
116.71728 -61.709316 6.6275935
116.79808 -61.30212 5.6595945
114.89247 -61.77972 8.9651947
115.53407 -61.610119 8.1859941
116.16927 -61.385319 10.564394
116.80207 -61.43972 4.7795944
114.20207 -61.690918 4.573194
116.95087 -61.706921 5.1251941
116.66047 -61.721317 7.5003939
116.73487 -61.350121 5.8627949
116.80767 -61.712521 6.311594
114.34047 -61.606121 6.0403943
114.44768 -61.780518 4.6515946
114.67967 -61.504517 8.7795944
114.83568 -61.58852 10.198795
114.41248 -61.739719 3.6579947
114.40208 -61.78532 5.0675941
114.44847 -61.778919 4.6059937
114.72127 -61.659718 9.1707954
114.76128 -61.742119 8.8707952
114.51967 -61.773319 5.1403942
116.88608 -61.696518 5.1563935
116.84207 -61.582119 4.5067945
116.81007 -61.710117 6.0915937
116.41328 -61.679718 8.5571947
114.39887 -61.780518 4.7867937
116.86767 -61.664516 7.0843935
116.97087 -61.330917 4.1123943
114.67327 -61.374119 7.1963944
116.78368 -61.491718 4.822794
114.01567 -61.682117 3.0387938
117.15567 -61.692516 3.1283939
114.66688 -61.752518 6.0923939
116.95247 -61.388519 6.6867938
114.26287 -61.753319 4.5947938
114.61407 -61.76292 7.3787937
115.27728 -61.595718 8.1731939
116.75008 -61.704517 7.5795946
114.71568 -61.766918 8.1155949
116.52447 -61.723721 8.5635948
114.24608 -61.62772 5.1883945
116.49727 -61.614117 7.4571948
114.44287 -61.787716 5.0243945
116.98127 -61.639721 3.7619941
115.16528 -61.684521 9.7899961
114.15727 -61.77972 3.389194
116.65008 -61.318119 6.5475941
116.64128 -61.36132 6.6819949
114.70048 -61.773319 6.9619937
116.69727 -61.311718 7.0659947
114.56447 -61.381317 6.2011948
114.26207 -61.576519 5.3443937
116.21728 -61.703716 10.436394
116.65648 -61.282116 7.4243946
116.87007 -61.65012 7.1915941
116.64687 -61.446117 6.0667939
117.14928 -61.694118 3.9523947
115.73727 -61.687717 8.248395
114.29727 -61.791718 3.9531939
116.67168 -61.706921 6.9059939
116.54207 -61.648518 7.3923941
114.29727 -61.762119 4.7811937
114.47567 -61.786919 5.5707946
114.86447 -61.416519 9.8267946
116.65008 -61.442917 6.0603948
114.50288 -61.38372 6.4931951
114.07808 -61.533321 3.7187946
115.47008 -61.742916 8.3203936
116.79727 -61.698917 6.7899957
115.49567 -61.338116 8.385994
114.57808 -61.384518 6.8075948
116.64928 -61.607719 6.1963944
116.30608 -61.702118 9.6587944
116.95407 -61.549316 3.5011947
116.56528 -61.666119 7.2635942
114.52927 -61.598118 7.6059942
114.67647 -61.373318 7.213994
114.16688 -61.597317 4.5555935
116.81087 -61.693317 7.2003942
114.63408 -61.416519 7.8299947
116.75087 -61.65572 5.6715946
116.75087 -61.40052 5.3883948
114.44287 -61.422119 4.0171938
115.49167 -61.684521 8.2411947
116.87248 -61.336517 4.7875943
116.35168 -61.332516 9.7027941
114.97408 -61.77972 9.7883949
116.30688 -61.641319 9.1659946
114.21087 -61.76292 3.7067945
114.32527 -61.278919 3.1107948
116.77728 -61.491718 4.9163947
114.74287 -61.434917 9.001195
116.50288 -61.386917 7.6171942
114.89887 -61.773319 8.5451937
115.55567 -61.726917 8.2923937
114.82767 -61.522121 10.087595
116.62127 -61.350918 6.9643941
114.84207 -61.756519 7.6827946
115.36607 -61.749317 8.4971943
116.94608 -61.321316 4.4995947
115.87248 -61.676517 8.2411947
116.98127 -61.694118 4.4819946
116.64928 -61.714119 7.2563939
114.72527 -61.77412 7.5835943
116.82607 -61.31332 6.8019948
116.18768 -61.525318 9.8155947
114.31087 -61.649319 5.7699938
114.38607 -61.778118 5.0027938
116.11888 -61.492519 10.384394
114.37007 -61.788521 4.2275939
115.51647 -61.722919 8.2843933
114.78687 -61.46452 9.6091938
114.43568 -61.466122 6.6171937
114.57647 -61.382919 6.7379947
116.26447 -61.694118 9.8811941
116.84687 -61.390919 4.5811939
114.42287 -61.38932 5.3379946
117.03568 -61.215717 4.5947938
116.90367 -61.696518 6.2931948
114.78928 -61.703716 6.6987948
116.49327 -61.390118 7.7107944
114.33727 -61.78532 3.8299949
114.97487 -61.68932 8.2227936
114.81087 -61.38612 8.8547945
114.29647 -61.790119 4.0851946
114.17727 -61.526119 4.593195
114.61807 -61.780518 6.2795949
116.94207 -61.493317 3.5387938
114.91167 -61.37812 9.5971947
116.52847 -61.726116 8.8179951
116.71487 -61.531719 5.4579949
114.39168 -61.460518 6.1019945
116.59887 -61.364517 6.9763951
116.43727 -61.728519 8.3907948
114.53648 -61.783718 5.6803937
114.88207 -61.714916 7.6491947
116.61008 -61.658916 6.8003941
114.13167 -61.766918 3.358794
114.36848 -61.59972 6.2867937
114.61887 -61.40852 7.6035938
114.60048 -61.657318 8.0907946
116.90047 -61.670918 4.667594
114.65727 -61.726917 8.1755943
116.58208 -61.423717 6.5979939
114.83408 -61.349316 8.909194
117.10688 -61.289318 3.5571947
114.26447 -61.663719 5.1147938
114.54848 -61.782921 5.7379947
116.82527 -61.688519 5.4635949
114.41248 -61.680519 6.501195
114.79488 -61.714916 9.3451939
117.25648 -61.682117 3.2835939
114.15968 -61.703716 4.1155949
114.61327 -61.781319 6.8915944
114.55888 -61.781319 5.6811938
114.30048 -61.737316 5.0803938
115.29167 -61.429317 8.1747952
116.21087 -61.741318 8.4339943
117.35648 -61.336517 3.0491946
116.48847 -61.37812 7.8459949
114.31007 -61.765316 3.1187944
114.51567 -61.41412 6.7859941
114.88527 -61.739719 7.8331943
114.19087 -61.776516 3.689194
114.62608 -61.38052 7.0363941
117.19887 -61.696518 3.3147941
116.24527 -61.481319 9.4251938
114.33887 -61.782921 3.7443938
116.70767 -61.715717 7.6459951
114.45327 -61.477322 6.7643938
115.85887 -61.734119 8.3251944
116.98608 -61.614918 3.4915938
115.10127 -61.75732 9.9307938
116.36287 -61.624519 8.6235952
116.26848 -61.476517 9.1803932
114.89887 -61.373318 9.0259933
116.66607 -61.71172 7.8419943
116.32127 -61.49572 8.1915941
114.69487 -61.771721 6.6875949
114.30367 -61.783718 3.4019945
116.46127 -61.350121 10.074795
116.31967 -61.646919 9.0915947
114.31007 -61.602917 5.7483945
116.55247 -61.596519 6.9395938
116.57487 -61.642918 6.9763951
114.83087 -61.77972 8.173995
114.26848 -61.716518 4.9915938
116.76208 -61.36692 5.5011945
117.03248 -61.592518 3.0355945
114.32848 -61.782116 4.2547946
116.85567 -61.55732 4.3251944
116.43167 -61.727718 9.2363939
116.75168 -61.356518 5.6571946
114.61327 -61.415718 7.6491947
114.51007 -61.421318 6.7691941
114.60207 -61.580517 8.2243948
116.52127 -61.592518 7.2091937
114.34608 -61.763718 3.4139936
116.35328 -61.703716 9.2995949
116.69968 -61.660519 6.1427946
116.29887 -61.494919 8.8843937
114.51888 -61.715717 7.0963945
114.68447 -61.382118 7.7019949
114.37968 -61.782921 4.7067947
116.81168 -61.315716 5.6723938
114.18367 -61.70612 4.3035936
114.75087 -61.480518 9.2859945
114.26527 -61.39172 4.2187948
116.42767 -61.329319 9.6611938
116.81407 -61.607719 4.8723936
114.50927 -61.459717 7.1323948
114.06767 -61.458118 3.2707946
114.59887 -61.742916 5.3659945
115.30848 -61.38372 8.2179947
116.54768 -61.399719 7.7259936
114.19087 -61.792519 3.2627947
116.95808 -61.698116 4.6795945
116.95808 -61.432518 3.4699938
115.84687 -61.618919 8.2059937
116.29648 -61.513317 8.8883944
114.76447 -61.518917 9.6059942
116.91167 -61.698116 5.0179944
114.47727 -61.786118 5.1875944
116.41328 -61.322121 9.6339941
116.50127 -61.68932 7.977994
114.44527 -61.733318 6.3339939
116.79648 -61.674118 5.5563936
116.78287 -61.370918 5.2835941
114.23087 -61.75172 4.0803938
114.17407 -61.46212 4.2611938
117.00367 -61.38372 3.2771945
114.23408 -61.496517 4.9483948
116.88127 -61.44532 4.105195
114.55087 -61.727718 7.2723942
114.72047 -61.782921 7.6323948
116.93167 -61.357319 4.0579948
115.33088 -61.576519 8.1499939
115.76368 -61.39172 8.2563934
114.74207 -61.759716 6.8331943
117.21168 -61.697319 3.3139937
116.90688 -61.656521 4.4739947
114.69087 -61.778919 6.8531938
116.52687 -61.721317 8.4299946
116.30608 -61.573318 8.9019947
114.29247 -61.77412 4.4571948
116.18047 -61.716518 8.3075943
114.92047 -61.370117 8.829195
116.48687 -61.632519 7.6291952
115.88687 -61.370117 8.5019951
114.34047 -61.555721 6.0091939
116.80767 -61.492519 4.6379948
114.71168 -61.526917 9.1267948
116.75887 -61.707718 7.4187946
116.80128 -61.50132 4.7179947
116.99968 -61.703716 4.6379948
116.51407 -61.382919 7.5555944
114.98687 -61.760517 8.9891939
114.56287 -61.748516 5.1123943
114.34608 -61.415718 5.2371955
116.44527 -61.340519 8.7475939
116.01328 -61.733318 8.3387947
116.52928 -61.639721 7.3259935
117.04367 -61.36372 3.7091937
115.07887 -61.322121 9.277195
116.95647 -61.701321 4.7771945
114.55807 -61.761318 5.2507935
114.57088 -61.716518 7.3563938
114.48367 -61.573318 7.2859941
114.36848 -61.790119 4.3619938
114.73647 -61.52372 9.3363943
116.71087 -61.640518 5.883594
114.19087 -61.794121 3.1795948
114.72688 -61.776516 7.0939946
114.89168 -61.752518 9.6915941
114.20128 -61.750919 4.0019946
116.38768 -61.358917 8.8931952
114.37647 -61.398117 5.3531938
114.92607 -61.687717 7.7435946
114.66447 -61.710918 5.6059937
114.21327 -61.733318 4.2795944
114.33568 -61.788521 3.914794
116.47568 -61.358917 8.1491947
116.52208 -61.725319 8.7707949
116.79408 -61.664516 5.4155946
114.40288 -61.787716 4.9707947
114.53327 -61.466122 7.3907948
114.29967 -61.746918 4.9787941
116.31407 -61.730919 10.213195
117.09727 -61.70052 4.1835938
114.85648 -61.555721 10.489194
114.45487 -61.580517 7.0339937
114.07647 -61.716518 3.2603946
115.29007 -61.766918 8.3699942
114.40208 -61.778118 5.3155947
116.57647 -61.637318 6.9635944
114.18847 -61.470917 4.4451938
114.33568 -61.533321 5.9795947
117.03887 -61.299721 3.9539945
114.66048 -61.726917 5.7003942
114.90527 -61.45332 10.375594
114.52287 -61.522121 7.5603948
114.35728 -61.629318 6.0963945
116.60527 -61.555721 6.3499937
114.91328 -61.733318 10.119595
114.71727 -61.708519 8.765995
114.47887 -61.78532 5.0907946
114.88048 -61.75172 7.9499941
116.55887 -61.410118 6.9651952
114.71967 -61.77972 7.822794
114.55647 -61.373318 6.0227938
116.81967 -61.387718 7.751595
116.77007 -61.702118 6.1395936
114.17888 -61.403717 3.7419939
115.84927 -61.734921 8.3363943
114.88687 -61.752518 9.7283936
116.34367 -61.709316 8.4859943
116.65008 -61.405319 6.2243943
116.45087 -61.429317 7.8315935
114.27968 -61.720516 4.8299947
116.67888 -61.615719 5.9971938
114.90047 -61.780518 9.161994
114.21407 -61.67252 4.7275939
115.33887 -61.373318 8.1043949
116.74928 -61.626118 5.6323948
116.81647 -61.379719 4.9139938
114.73488 -61.760517 6.7899957
116.75567 -61.718121 7.0451937
114.86928 -61.38932 8.1395941
117.05727 -61.69492 4.3307943
116.20688 -61.594921 9.7643938
116.88207 -61.593319 4.2211947
116.98927 -61.446117 3.1459947
114.44127 -61.787716 5.1683946
114.60048 -61.654118 7.9563937
114.65087 -61.771721 7.501195
114.25167 -61.608517 5.3339939
114.38767 -61.45652 6.501195
115.28207 -61.606918 8.1771946
116.63087 -61.702118 8.730794
114.71807 -61.587719 9.3139944
116.43167 -61.714916 8.9195938
116.85487 -61.710918 5.8851948
114.50047 -61.727718 4.3627949
116.77888 -61.626919 5.2819943
115.86447 -61.572521 8.1947937
116.76848 -61.702919 6.3579946
114.93247 -61.395718 10.233194
114.52127 -61.462917 7.2619939
116.28127 -61.330917 10.469194
114.94608 -61.769318 8.8267946
116.93968 -61.573318 3.7067945
115.01567 -61.686916 8.2355947
116.76688 -61.706921 6.302794
115.02687 -61.37492 10.515594
114.86527 -61.781319 8.7931948
117.22368 -61.39172 4.4675941
114.19887 -61.712521 4.4243946
114.31567 -61.619717 5.9139938
114.16927 -61.454918 4.0803938
117.19968 -61.691719 3.5443938
114.39088 -61.40612 5.6131945
116.81888 -61.615719 4.822794
114.34447 -61.394119 4.9083939
116.86287 -61.333321 4.9219947
117.10527 -61.690121 3.4707944
114.88527 -61.773319 8.9995947
114.83007 -61.56292 10.228394
117.05647 -61.694118 3.8867939
114.16127 -61.738918 3.9179945
116.85247 -61.645321 4.7771945
116.69727 -61.494919 5.5811939
116.91967 -61.686916 4.725194
114.43967 -61.43412 6.3531938
116.65807 -61.652519 6.4147935
114.79647 -61.665318 9.8131943
114.25008 -61.382118 3.6859939
114.68047 -61.71172 5.8051949
116.96447 -61.613319 3.6659944
114.26048 -61.778919 4.1747947
115.04607 -61.396519 9.2467947
116.21008 -61.623718 9.8451939
114.73808 -61.773319 7.1171937
116.99488 -61.57732 3.2915938
114.33167 -61.77972 4.7291946
116.84047 -61.516521 4.3459949
114.01328 -61.680519 3.0587938
117.15008 -61.698917 3.4875944
114.26048 -61.789318 3.8627946
114.58287 -61.782921 6.0571947
114.99407 -61.749317 8.8787937
116.99727 -61.334118 3.8099947
116.14207 -61.457317 10.258794
116.34846 -61.710918 9.4403954
114.33247 -61.778118 4.4963946
114.66367 -61.502117 8.7083941
116.91487 -61.351719 4.2555938
116.19648 -61.39492 10.229995
114.73888 -61.746918 6.6579943
114.55087 -61.778919 5.5875945
116.47568 -61.709316 8.8219948
116.10047 -61.550919 10.538795
114.52528 -61.772518 5.2907944
114.85487 -61.415718 9.7611942
116.64448 -61.31892 7.2883945
116.67248 -61.705318 6.8491945
114.09487 -61.718918 3.5339937
114.59087 -61.57412 8.1427946
114.65247 -61.758118 7.7611942
114.39327 -61.722118 3.3923938
116.78847 -61.384518 5.1523948
114.42368 -61.390118 4.7755938
115.59407 -61.730919 8.3011951
114.60287 -61.730919 5.2747946
116.75168 -61.52932 5.0675941
114.41087 -61.777321 4.2379947
117.08847 -61.38052 5.504395
116.96208 -61.617321 3.7099948
114.97408 -61.776516 9.9483948
116.83568 -61.54612 4.4899955
114.32368 -61.618919 5.8387938
114.37487 -61.530918 6.3355947
115.01408 -61.767719 10.542794
116.07248 -61.77412 8.4259939
114.26447 -61.791718 3.353194
116.19007 -61.525318 9.8275938
114.73007 -61.76852 6.9259934
116.39407 -61.722919 8.4467945
115.22208 -61.457317 8.2211952
116.94048 -61.298119 4.9411945
116.37967 -61.732517 9.8163948
114.75487 -61.630917 9.4883947
114.19247 -61.794121 2.9755938
114.13728 -61.671719 4.121995
116.79648 -61.660519 5.3659945
114.38687 -61.403717 5.5475941
117.11008 -61.676517 3.1867938
114.17007 -61.682919 4.3443937
114.36687 -61.508518 6.1403947
116.09727 -61.549316 10.593994
116.49327 -61.68372 8.087595
114.72207 -61.49012 9.1459951
114.23087 -61.727718 4.5499935
114.65167 -61.765316 7.6299944
116.70527 -61.58292 5.667594
116.45328 -61.670116 8.1915941
114.67327 -61.591717 8.9619942
116.90047 -61.539719 3.9347944
116.65887 -61.714916 8.0811939
115.42368 -61.754917 8.4299946
116.58847 -61.646118 6.9795947
114.21168 -61.743717 4.2531939
114.63487 -61.351719 6.486794
116.33727 -61.64452 8.9067955
114.92368 -61.37812 8.3443947
114.19487 -61.572521 4.8915939
117.09488 -61.29652 4.4531937
114.43087 -61.390118 4.3299952
116.10527 -61.556519 10.571594
115.27408 -61.739719 8.3563938
114.83247 -61.463718 9.903594
114.97408 -61.77412 10.030794
114.57327 -61.381317 6.6683946
116.93088 -61.691719 4.8579946
114.15648 -61.737316 4.0123949
116.33167 -61.734921 10.272394
116.18047 -61.472519 9.9443941
114.49007 -61.760517 4.6211948
116.59727 -61.624519 6.725194
115.16927 -61.371719 8.323595
114.80367 -61.780518 8.4307938
116.48048 -61.722118 8.7563934
114.67727 -61.37252 7.0803933
114.15887 -61.578918 4.4531937
114.15648 -61.782921 3.3043947
114.64448 -61.749317 7.739594
114.45647 -61.558117 6.9979939
116.75648 -61.64452 8.2299948
116.93806 -61.491718 3.5627947
116.95967 -61.621319 3.7547946
116.58607 -61.33012 7.7083941
115.03728 -61.729321 9.0331945
114.88207 -61.49012 10.455594
114.48367 -61.717319 6.7979937
114.81168 -61.744518 7.2563939
116.96927 -61.705318 4.7235947
116.21888 -61.606918 9.7091942
116.95247 -61.705318 4.9747944
114.54848 -61.739719 7.1435947
117.20927 -61.675716 3.9011946
114.54448 -61.795719 6.5675936
116.91888 -61.647717 4.3563938
116.60367 -61.347717 7.2043948
116.90688 -61.538921 3.8267946
117.23167 -61.282921 3.0419939
114.26927 -61.709316 5.0427947
114.69647 -61.472519 8.8427944
116.25567 -61.63332 9.5611944
116.35008 -61.723721 10.417995
114.14528 -61.444519 3.9963946
116.61327 -61.323719 7.5683947
116.97487 -61.569317 3.4195936
116.34128 -61.348518 9.4851952
114.35167 -61.782921 3.9651945
116.76128 -61.322121 6.0819945
114.49887 -61.43652 6.9963946
114.68687 -61.382919 7.7763948
114.79088 -61.70612 6.4731936
114.65487 -61.406918 7.9715948
116.95247 -61.299721 5.3819947
116.66767 -61.55172 5.8651948
114.46527 -61.754917 5.975594
114.62047 -61.775719 6.1219945
116.32687 -61.382118 9.1971941
116.33727 -61.583721 8.1995945
116.75567 -61.287716 6.4035935
116.51888 -61.33572 8.0795946
114.53967 -61.365318 6.481194
116.30128 -61.513317 8.834795
114.65887 -61.554916 8.7043953
115.08367 -61.731716 8.282795
115.30287 -61.774918 8.242794
116.85887 -61.550919 4.2803936
115.07327 -61.50132 8.2067947
116.16447 -61.656521 10.471595
114.86928 -61.518917 10.540395
116.11087 -61.58292 10.485994
114.54927 -61.40052 6.8211946
114.88127 -61.744518 7.9827948
114.28288 -61.51812 5.4771943
114.05087 -61.45652 3.0483947
114.79887 -61.775719 7.719594
114.48528 -61.459717 6.9195943
114.51888 -61.775719 5.1875944
114.43167 -61.712521 3.6547945
116.67647 -61.634918 6.133194
114.59567 -61.604519 8.2115936
114.16927 -61.459717 4.2003937
116.51567 -61.665318 7.6155949
114.83968 -61.498917 10.226795
116.79088 -61.58532 4.9403944
114.97408 -61.771721 10.113194
116.63167 -61.71172 8.5139942
116.71407 -61.342918 6.1403947
114.26048 -61.786118 3.9947939
116.59567 -61.682919 7.136394
114.36367 -61.663719 5.9579949
116.66447 -61.51252 5.8619943
114.27647 -61.597317 5.5195937
116.13968 -61.521317 8.1771946
115.22767 -61.761318 8.4331942
116.82848 -61.384518 4.7803936
116.64128 -61.721317 7.668395
116.88527 -61.667721 4.7259941
114.23087 -61.730118 4.5571947
116.83807 -61.309319 6.3955946
115.11727 -61.715717 9.5891943
114.08607 -61.721317 3.400394
116.81967 -61.67252 5.3179946
117.04448 -61.30772 3.6899955
116.58047 -61.333321 7.5691943
114.40208 -61.77412 4.0323944
116.89967 -61.707718 5.9539948
116.83327 -61.57972 4.4883947
114.88448 -61.521317 10.549194
115.72928 -61.630917 8.230794
116.79247 -61.698116 6.2947941
116.46127 -61.603718 7.8323946
117.00768 -61.675716 5.6771946
116.97967 -61.310921 4.2003937
114.22447 -61.678921 4.7923937
114.41328 -61.595718 6.6451936
