# .PCD v0.7 - Point Cloud Data file format
VERSION 0.7
FIELDS x y z
SIZE 4 4 4
TYPE F F F
COUNT 1 1 1
WIDTH 1542
HEIGHT 1
VIEWPOINT 0 0 0 1 0 0 0
POINTS 1542
DATA ascii
110.58191 -82.068039 2.754492
110.33891 -82.082047 3.116493
110.39091 -82.015045 2.106493
110.34792 -82.029037 -1.230507
110.53791 -82.380043 -1.058506
110.54991 -82.050041 -0.95750803
110.40392 -82.408043 -1.8785059
110.34391 -82.032043 -0.85750598
110.30091 -82.076042 -0.41950601
110.31591 -82.349045 2.589493
110.09091 -82.201042 2.080492
110.60991 -82.113037 -0.75650799
110.43591 -82.008041 0.93649298
110.38391 -82.017044 -1.194508
110.58392 -82.030045 2.893492
110.28591 -82.079041 1.159492
110.31191 -82.370041 0.109493
110.31491 -82.048042 -1.643509
110.27391 -82.332047 0.50449401
110.54891 -82.37204 -1.776508
110.25491 -82.310043 -0.60050601
110.27091 -82.045044 3.3424931
110.52491 -82.387039 -0.171509
110.23191 -82.179047 2.195492
110.33392 -82.384041 0.967493
110.28591 -82.079041 1.194492
110.27791 -82.091042 1.984493
110.28691 -82.078041 1.088493
110.57891 -82.115044 2.656492
110.38191 -82.018044 -0.99150801
110.57791 -82.350044 -0.95250702
110.43192 -82.009041 1.459492
110.53291 -82.382042 -0.70250702
110.42691 -82.011047 -1.807507
110.62791 -82.277039 1.399492
110.50791 -82.396042 -1.6285059
110.28491 -82.080048 1.264492
110.47392 -82.403046 0.860493
110.61292 -82.050041 3.173492
110.52391 -82.027039 2.1804919
110.23491 -82.274048 -1.354507
110.46691 -82.005043 -1.052509
110.44691 -82.01004 -0.317509
110.45791 -82.402039 0.86349303
110.35991 -82.026047 1.393492
110.54091 -82.040039 0.122494
110.26791 -82.052048 3.589493
110.42391 -82.405045 1.887493
110.62291 -82.128044 1.340492
110.33791 -82.386047 0.67949301
110.23591 -82.225044 2.8354931
110.28791 -82.347046 2.0094931
110.60791 -82.10704 -0.48450899
110.60991 -82.069046 3.340492
110.57991 -82.348038 -1.060509
110.19991 -82.289047 -0.33650601
110.47491 -82.405045 -1.807507
110.55291 -82.373047 0.68649298
110.62891 -82.147041 0.43749201
110.59491 -82.084045 1.191492
110.46791 -82.004044 -0.69550699
110.34691 -82.030045 -1.162506
110.57291 -82.064041 0.055491999
110.33291 -82.381042 1.866493
110.30291 -82.116043 2.6644919
110.40791 -82.427048 2.8844931
110.40392 -82.382042 3.5564921
110.54691 -82.403046 3.472492
110.49491 -82.398041 -0.66750699
110.56491 -82.055038 1.116493
110.26891 -82.325043 0.902493
110.40491 -82.406044 0.642492
110.58891 -82.076042 1.937492
110.35291 -82.391037 2.0004921
110.61491 -82.112045 2.3154931
110.23291 -82.17804 2.046494
110.58291 -82.343048 -1.275509
110.35191 -82.027039 -1.674507
110.23991 -82.286041 -1.787506
110.25691 -82.305038 1.943493
110.26991 -82.092041 -0.92950797
110.26291 -82.327042 -1.277508
110.48991 -82.021042 -1.5335079
110.58691 -82.086044 -1.642506
110.54391 -82.043045 -0.18150701
110.61391 -82.060043 2.9044931
110.41792 -82.029037 2.744493
110.33891 -82.049042 3.584492
110.53091 -82.033043 1.322493
110.45191 -82.407043 2.421494
110.50691 -82.394043 1.116493
110.41991 -82.011047 -1.125507
110.35091 -82.032043 2.408493
110.35691 -82.396042 -0.84550899
110.32491 -82.045044 1.187492
110.42491 -82.407043 -0.84450901
110.45892 -82.009041 2.139492
110.43991 -82.407043 0.71549201
110.25291 -82.296043 2.291492
110.45291 -82.012039 -0.99050897
110.40991 -82.397041 3.0154929
110.43291 -82.406044 1.221493
110.62891 -82.146042 0.50649297
110.48091 -82.015045 -0.45150799
110.42291 -82.01004 -1.363506
110.46991 -82.012039 0.83449203
110.19091 -82.147041 -0.385506
110.61591 -82.113037 2.241493
110.32291 -82.376038 1.852493
110.40791 -82.405045 0.46449301
110.40291 -82.406044 0.786493
110.22791 -82.164047 2.839493
110.25391 -82.306046 -0.493507
110.62991 -82.337044 3.422493
110.61791 -82.116043 1.9484921
110.46091 -82.009041 1.8144929
110.33791 -81.995041 2.4474931
110.61091 -82.308044 -0.310509
110.36591 -82.401047 -1.5205081
110.32291 -82.380043 -0.811508
110.63091 -82.338043 3.3384931
110.53991 -82.039047 0.32549301
110.51591 -82.029037 -0.68750799
110.57491 -82.112045 3.1214919
110.66391 -82.147041 2.1844921
110.39391 -82.406044 -1.163506
110.41091 -82.019043 2.678493
110.46791 -82.004044 -0.93350601
110.45992 -82.402039 1.889492
110.33991 -82.386047 0.536493
110.32491 -82.378044 1.665493
110.28691 -82.307037 3.0324919
110.35591 -82.395042 -0.70450598
110.36991 -82.409042 -1.8785059
110.28891 -82.348038 1.971493
110.63091 -82.154037 0.16449399
110.25191 -82.128044 0.60949302
110.29292 -82.353043 1.6324919
110.49691 -82.018044 1.4954931
110.57691 -82.069046 -0.38350701
110.38891 -82.015045 -1.7055089
110.49791 -82.018044 1.460493
110.45791 -82.013046 -1.566509
110.35591 -82.396042 -0.77450597
110.38591 -82.402039 -0.52750802
110.42891 -82.008041 1.742493
110.36491 -82.023041 0.87049299
110.13691 -82.269043 0.90649199
110.41792 -82.011047 -0.85550702
110.35291 -82.022041 0.97149301
110.57691 -82.069046 -0.41750699
110.45291 -82.009041 2.774492
110.26291 -82.109039 1.570492
110.52892 -82.386047 2.277493
110.27791 -82.080048 -1.648506
110.60391 -82.313042 2.8154931
110.52391 -82.013046 1.326492
110.47392 -82.405045 -1.771507
110.35591 -82.028046 1.821493
110.35291 -82.393044 -0.49250799
110.58891 -82.333038 -1.6005059
110.23991 -82.286041 -1.751507
110.29891 -82.358047 1.152493
110.46891 -82.358047 2.6214919
110.30891 -82.054047 -1.096508
110.27892 -82.310043 3.0004921
110.54191 -82.496048 2.9464929
110.57791 -82.070038 -0.48450899
110.33392 -82.389038 -1.665508
110.47392 -82.003044 0.85249299
110.48391 -82.017044 -0.78850597
110.29891 -82.374039 3.6374929
110.51492 -81.989044 3.672493
110.43192 -82.009041 1.3884929
110.54391 -82.043045 -0.147507
110.26591 -82.108047 2.409492
110.60891 -82.313042 -0.20350599
110.32691 -82.044037 0.97849298
110.50491 -82.021042 0.66349202
110.42791 -82.405045 1.625492
110.48291 -82.006042 2.768492
110.60891 -82.145042 2.7424929
110.28991 -82.074043 0.84449202
110.54491 -82.378044 1.230492
110.48391 -81.988037 3.389492
110.29691 -82.356041 1.299492
110.28591 -82.34404 2.2394919
110.35791 -82.027039 1.606493
110.61292 -82.125046 -1.268509
110.35991 -82.398041 -1.022507
110.32092 -82.374039 2.041492
110.53091 -82.017044 0.131493
110.34291 -82.033043 -0.722507
110.60891 -82.109039 -0.58650601
110.49491 -82.017044 1.815493
110.27491 -82.334045 0.396492
110.58492 -82.346039 1.237494
110.23991 -82.267044 3.469492
110.53891 -82.039047 0.35949299
110.32891 -82.380043 1.369493
110.36691 -82.402039 -1.556507
110.45191 -82.406044 -0.137508
110.33591 -82.03804 0.053493001
110.44991 -81.978043 3.5064931
110.43091 -82.406044 1.404493
110.40891 -82.011047 0.187492
110.58791 -82.425041 2.895493
110.58591 -82.340042 -1.419506
110.58291 -82.34404 -1.239506
110.52691 -82.030045 1.818493
110.18891 -82.243042 -0.244507
110.57891 -82.071045 -0.61950701
110.61991 -82.120041 1.731493
110.35591 -82.395042 -0.73950601
110.31791 -82.375046 -0.63350701
110.59792 -82.087044 0.80949199
110.42691 -82.009041 1.994493
110.33691 -82.037041 -0.115509
110.36991 -82.380043 3.429493
110.36891 -82.403046 -1.735508
110.58991 -82.077042 1.793493
110.64991 -82.284042 2.4704931
110.57491 -82.06604 -0.113506
110.62991 -82.149048 0.36949199
110.38691 -82.403046 -0.56250799
110.35391 -82.008041 2.5234931
110.46591 -82.011047 1.283493
110.57891 -82.352043 1.606493
110.57291 -82.355042 -0.59650803
110.58591 -82.073044 2.2664931
110.35191 -82.028046 -1.605507
110.25291 -82.114044 -1.528507
110.45591 -82.012039 -1.294506
110.66191 -82.179047 2.663492
110.27491 -82.313042 2.538492
110.45191 -82.011047 -0.85550702
110.39391 -82.015045 1.852493
110.41891 -82.405045 2.2664931
110.52291 -82.026047 2.290493
110.63291 -82.16304 -0.109509
110.25591 -82.140045 2.386492
110.50191 -82.396042 -1.1285059
110.64391 -82.108047 2.9604931
110.53891 -82.379044 -1.129509
110.42391 -82.407043 -0.77350599
110.47491 -82.386047 3.629492
110.25991 -82.111038 0.377491
110.53691 -82.037041 0.63149297
110.27591 -82.083038 -1.476509
110.59792 -82.329041 0.44049099
110.61491 -82.130043 -1.4755059
110.35191 -82.391037 2.0764921
110.22491 -82.252045 -0.422508
110.46191 -82.401047 1.488493
110.49291 -82.398041 2.0814929
110.36891 -82.399048 0.786493
110.57491 -82.076042 3.5054929
110.54091 -82.02504 -1.540508
110.30791 -82.055038 -0.92750901
110.44291 -82.391037 3.222492
110.43091 -82.009041 1.565493
110.34391 -82.35704 3.6334929
110.28991 -82.080048 2.9974921
110.41792 -81.972046 3.4244919
110.33691 -82.38504 0.75149298
110.38191 -82.018044 -0.95750803
110.26091 -82.111038 0.735493
110.54191 -82.378044 -1.308506
110.53991 -82.380043 1.524492
110.50092 -82.396042 1.482492
110.25491 -82.298042 2.136492
110.22292 -82.241043 -0.243507
110.62291 -82.129044 1.270493
110.46391 -82.404037 -1.056507
110.42991 -82.406044 1.477493
110.19191 -81.940048 2.682493
110.35291 -82.027039 -1.708508
110.35391 -82.030045 2.0754931
110.19592 -82.185043 -1.594509
110.46591 -82.011047 1.318493
110.50691 -82.023041 0.32349399
110.58291 -82.459045 2.922493
110.37191 -82.021042 0.120491
110.60991 -82.296043 2.5824931
110.59991 -82.091042 0.60349298
110.34291 -82.033043 -0.75650799
110.31591 -82.047043 -1.815506
110.59391 -82.329041 3.422493
110.52791 -82.386047 2.393492
110.52391 -82.388046 -0.136509
110.54691 -82.046043 -0.55250901
110.31191 -82.370041 0.073494002
110.36991 -82.399048 0.71449298
110.47091 -82.406044 -1.555508
110.45191 -82.380043 2.6644919
110.51591 -82.004044 3.395493
110.32791 -82.379044 1.4794919
110.50291 -82.396042 1.372492
110.57991 -82.055038 3.1374929
110.62091 -82.12204 1.588493
110.26891 -82.050041 3.5064931
110.49091 -82.015045 2.214493
110.44091 -82.392044 3.3454931
110.52791 -82.030045 1.746492
110.39791 -82.408043 -1.448509
110.54491 -82.078041 3.1084919
110.42891 -82.407043 -1.127506
110.51991 -82.033043 -1.227509
110.37391 -82.020042 -0.014507
110.35791 -82.027039 1.677492
110.61192 -82.309044 2.2654929
110.61491 -82.103043 2.462492
110.24391 -82.152039 1.243492
110.47292 -82.403046 0.896492
110.58791 -82.342041 1.018492
110.35291 -82.391037 2.038492
110.50791 -82.395042 -1.5925061
110.35291 -81.976044 2.918493
110.52091 -82.389038 0.076491997
110.48591 -82.028046 2.666492
110.30291 -82.435043 2.8754921
110.54091 -82.379044 -1.2365071
110.29491 -82.354042 1.446493
110.58691 -82.088043 -1.746506
110.39991 -82.405045 1.038492
110.48591 -82.40004 -0.030506
110.31391 -82.049042 -1.540508
110.44391 -82.407043 0.39349401
110.30791 -82.055038 -0.99550599
110.26492 -82.330048 -1.456509
110.39891 -82.408043 -1.519508
110.65991 -82.236038 2.2104931
110.35591 -82.392044 1.812492
110.33591 -82.037041 0.020493001
110.51492 -82.028046 -0.61950701
110.58991 -82.340042 0.87249202
110.55191 -82.052048 -1.194508
110.47991 -82.015045 -0.283508
110.36891 -82.398041 0.75049198
110.28591 -82.100044 3.3674929
110.53391 -82.034042 1.009493
110.31891 -82.373047 2.1944921
110.26591 -82.152039 2.6044919
110.26791 -82.096039 -0.65750903
110.30891 -82.054047 -1.062508
110.25891 -82.112045 0.13949201
110.57191 -82.062042 0.259491
110.34091 -82.386047 0.42849299
110.26791 -82.096039 -0.69150901
110.61391 -82.129044 -1.4065059
110.52691 -82.030045 1.890493
110.51591 -82.031044 3.050493
110.23391 -82.268044 -1.211506
110.20391 -82.267044 0.981493
110.42191 -82.011047 -1.329506
110.50591 -82.395042 1.152493
110.58492 -82.083038 -1.401508
110.46091 -82.402039 1.777493
110.48891 -81.986038 2.840492
110.42491 -82.002045 0.077491999
110.26791 -82.323044 0.975492
110.52791 -82.386047 -0.38450599
110.25291 -82.295044 2.330492
110.25791 -82.113037 -0.21850599
110.34892 -82.033043 2.5584929
110.67491 -82.144043 2.9344921
110.53791 -82.382042 1.710493
110.25991 -82.069046 2.8654921
110.46491 -82.011047 1.3884929
110.51191 -82.393044 0.71849298
110.27491 -82.096039 2.244493
110.26691 -82.108047 2.530493
110.37991 -82.401047 -0.068507999
110.68091 -82.126038 2.468493
110.15392 -82.244041 -0.244507
110.45791 -82.405045 -0.63250703
110.23291 -82.26004 -1.0675091
110.24191 -82.119041 2.8194921
110.40691 -82.405045 0.50049198
110.32691 -82.044037 0.94349301
110.58691 -82.338043 -1.491508
110.53091 -82.383041 -0.561508
110.41591 -82.011047 -0.65450698
110.59892 -82.328041 0.36849201
110.55791 -82.401047 2.663492
110.58492 -82.071045 2.415493
110.24491 -82.285042 0.292492
110.61192 -82.121048 -1.062508
110.47392 -82.459045 2.916492
110.31991 -82.049042 1.647493
110.61891 -82.297043 1.884493
110.61091 -82.117043 -0.92650598
110.23991 -82.28804 -1.824509
110.44691 -82.041046 3.1354921
110.48692 -82.389038 2.5854931
110.44592 -82.009041 -0.115509
110.40891 -82.011047 0.153492
110.33191 -82.019043 3.2824919
110.41391 -82.394043 2.7764931
110.19091 -82.222046 -0.27950701
110.50791 -82.023041 0.256493
110.46591 -82.40004 2.2404921
110.41591 -82.011047 -0.58650601
110.30591 -82.364044 0.57349199
110.40392 -82.406044 0.71449298
110.45391 -82.404037 0.238491
110.34191 -82.040039 3.297493
110.36391 -82.396042 1.147493
110.38191 -82.401047 2.3814931
110.51391 -82.016037 2.7624929
110.36991 -82.048042 2.6484931
110.41591 -81.988037 3.472492
110.60491 -82.082047 3.712492
110.31691 -82.366043 -0.28050601
110.31291 -82.345047 2.788492
110.44291 -82.009041 0.119492
110.27291 -82.087044 -1.202507
110.53191 -82.38504 2.086493
110.48991 -82.015045 2.3244929
110.52991 -82.017044 0.370491
110.24291 -82.27504 0.54549199
110.31391 -82.304047 3.0854931
110.58191 -82.065048 2.791492
110.50791 -82.394043 1.043493
110.34892 -82.392044 -0.209507
110.54491 -82.044037 -0.35050601
110.39491 -82.014038 1.744493
110.61591 -82.115044 2.204493
110.25092 -82.130043 0.71449298
110.57092 -82.301041 2.6574919
110.39791 -82.014038 1.320492
110.34991 -82.024048 0.018494001
110.47292 -82.012039 0.52649301
110.60791 -82.10704 -0.450508
110.35091 -82.390045 2.152493
110.27991 -82.100044 0.84949303
110.66191 -82.41304 2.9444921
110.30891 -82.367043 0.32349399
110.35691 -82.396042 -0.81050903
110.27691 -82.337044 0.217491
110.42891 -82.009041 1.8144929
110.40791 -82.012039 0.25549299
110.25591 -82.148041 3.1414931
110.22991 -82.125046 3.2584929
110.60791 -82.108047 -0.51850897
110.30391 -82.058044 -0.622509
110.50991 -82.02504 -0.013508
110.45791 -82.009041 2.2134931
110.56191 -82.365044 0.043490998
110.53191 -82.033043 1.2174931
110.19091 -82.148041 -0.41950601
110.60391 -82.156044 3.1374929
110.60891 -82.110046 -0.62050599
110.42491 -82.405045 1.812492
110.55391 -82.035042 0.374493
110.52892 -82.031044 1.568493
110.53591 -82.381042 -0.95150799
110.46791 -82.404037 -1.305508
110.58591 -82.085037 -1.5395091
110.25691 -82.317047 -0.81450701
110.36691 -82.402039 -1.627506
110.61192 -82.103043 2.804493
110.41591 -81.980042 3.590492
110.56891 -82.359039 -0.38350701
110.34691 -82.360046 2.666492
110.24591 -82.28804 0.184494
110.25391 -82.308044 -0.52950698
110.47991 -82.015045 -0.35050601
110.48491 -82.40004 0.039494
110.68891 -82.237045 2.846493
110.49291 -82.399048 -0.490509
110.46491 -82.404037 -1.127506
110.29891 -82.366043 -1.560509
110.29991 -82.386047 2.9794919
110.34591 -82.032043 -1.026508
110.41991 -82.407043 -0.45650899
110.54791 -82.376038 1.011492
110.38891 -82.015045 -1.671509
110.27892 -82.090042 1.875492
110.54091 -82.380043 1.487494
110.58091 -82.075043 -0.92450702
110.54991 -82.049042 -0.889507
110.40191 -82.409042 -1.7705081
110.59291 -82.081039 1.401493
110.52091 -81.994041 2.8814931
110.62691 -82.281044 1.473492
110.48091 -82.016037 -0.519508
110.49291 -82.024048 -1.911507
110.47292 -82.402039 0.93249297
110.51991 -82.389038 0.14749099
110.48991 -82.020042 -1.498508
110.38691 -82.401047 2.037493
110.56591 -82.056046 0.94349301
110.60891 -82.295044 2.662493
110.33392 -82.451042 2.9114931
110.51492 -82.028046 -0.55250901
110.61192 -82.062042 3.218493
110.34991 -82.390045 2.2294919
110.33492 -82.378044 3.4704931
110.54691 -82.046043 -0.58650601
110.56691 -82.362045 2.402493
110.29791 -82.065048 0.021492001
110.64091 -82.203041 2.4564929
110.37491 -82.019043 -0.216507
110.37592 -82.019043 -0.250507
110.49191 -82.015045 2.1774919
110.57691 -82.064041 3.379492
110.38491 -82.402039 -0.45650899
110.54691 -82.046043 -0.61950701
110.47191 -82.012039 0.59449202
110.29292 -82.359039 -1.060509
110.24791 -82.293045 0.0054930001
110.56991 -82.060043 0.46349299
110.50092 -82.396042 1.519493
110.53291 -82.034042 1.147493
110.57391 -82.355042 1.906492
110.40991 -82.011047 0.052494001
110.53491 -82.021042 -0.58450699
110.31991 -82.050041 1.683493
110.26691 -82.322044 1.121492
110.37391 -82.020042 -0.048508
110.57691 -82.068039 -0.34950599
110.53591 -82.382042 1.8604929
110.61891 -82.118042 1.875492
110.52291 -82.345047 3.1224921
110.35791 -82.393044 1.588493
110.54891 -82.048042 -0.78850597
110.45691 -82.012039 -1.396507
110.27691 -82.337044 0.25349399
110.28891 -82.251038 2.6604919
110.25691 -82.301041 2.020493
110.43991 -82.404037 3.3124919
110.45992 -82.403046 1.851492
110.64091 -82.079041 3.586493
110.55991 -82.050041 1.679493
110.51191 -82.393044 0.75449198
110.66091 -82.236038 2.171494
110.43991 -82.407043 0.67949301
110.50691 -82.023041 0.391491
110.32691 -82.379044 0.864492
110.26391 -82.329041 -1.385506
110.48891 -82.014038 2.548492
110.53591 -82.381042 -0.91550797
110.35091 -82.390045 2.1914921
110.32092 -82.375046 1.9664921
110.61491 -82.111038 2.3904929
110.48391 -82.391037 2.781492
110.31691 -82.373047 -0.31550601
110.30391 -82.363037 0.753492
110.47191 -82.012039 0.56049299
110.47491 -82.013046 0.187492
110.49591 -82.017044 1.672493
110.51591 -81.987045 3.589493
110.40591 -82.012039 0.492493
110.60891 -82.311043 -0.23950601
110.25991 -82.322044 -1.027508
110.34391 -82.032043 -0.79050797
110.47591 -82.004044 1.210493
110.53991 -82.040039 0.223492
110.43591 -82.009041 1.005493
110.27892 -82.111038 3.6114919
110.48491 -82.018044 -0.922508
110.41091 -82.01004 -0.048508
110.25891 -82.113037 0.020493001
110.48591 -82.019043 -1.057507
110.31491 -82.048042 -1.677509
110.27391 -82.061043 2.8384931
110.24791 -82.140045 0.88949198
110.24991 -82.132042 0.78349298
110.56191 -82.051041 1.4664921
110.60091 -82.324043 0.225494
110.43991 -82.009041 0.52649301
110.41591 -82.394043 2.579493
110.31391 -82.057037 2.3054919
110.41792 -82.01004 -0.82250601
110.31291 -82.049042 -1.506508
110.27591 -82.09404 2.169493
110.41891 -82.02504 2.666492
110.53491 -82.035042 0.90549302
110.53691 -82.381042 -1.022507
110.47392 -82.013046 0.32249099
110.32391 -82.377045 1.777493
110.60991 -82.103043 3.038492
110.34691 -82.390045 0.0024910001
110.30591 -82.057037 -0.79150802
110.55991 -82.050041 1.643492
110.35391 -82.394043 -0.59850699
110.58891 -82.341042 0.981493
110.45391 -81.98204 2.9174919
110.30991 -82.346039 3.0294931
110.48491 -82.006042 3.3714919
110.47392 -82.403046 0.82449299
110.57291 -82.35704 2.0194931
110.34591 -82.389038 0.073494002
110.36791 -82.398041 0.82249302
110.34191 -82.388046 0.32249099
110.32291 -82.380043 -0.775509
110.56691 -82.057037 0.874493
110.31891 -82.374039 -0.457508
110.33091 -82.387039 -1.450508
110.38791 -82.403046 -0.70350599
110.50491 -82.021042 0.56149298
110.49691 -82.017044 1.565493
110.30491 -82.468048 2.4734919
110.61292 -82.080048 2.834492
110.45791 -82.406044 -0.59650803
110.40191 -82.405045 0.89449298
110.33191 -82.040039 0.46249399
110.39791 -82.014038 1.390493
110.31991 -82.375046 -0.25850701
110.34691 -82.030045 -1.094509
110.58091 -82.470047 2.958492
110.44291 -82.009041 0.187492
110.21191 -81.950043 2.471493
110.15891 -82.197044 2.4674931
110.46691 -82.011047 1.109493
110.27991 -82.310043 3.278492
110.43891 -82.388046 3.5554919
110.45191 -82.396042 2.541492
110.43391 -82.009041 1.179493
110.54391 -82.421043 3.5064931
110.41891 -82.011047 -0.99050897
110.30091 -82.360046 0.97049302
110.57092 -82.062042 0.29349101
110.54391 -82.379044 1.303493
110.54591 -82.421043 3.340492
110.45491 -81.98204 2.840492
110.41491 -82.01004 -0.48550799
110.44791 -81.987045 3.5514929
110.35191 -82.393044 -0.457508
110.62791 -82.339043 3.5054929
110.61091 -82.119041 -0.99450701
110.32092 -82.049042 1.576492
110.51091 -82.024048 -0.047508001
110.48191 -82.402039 0.252491
110.48792 -82.013046 3.1304929
110.50891 -82.024048 0.188492
110.32891 -82.379044 1.240492
110.25491 -82.112045 -0.81350702
110.34991 -82.028046 -1.434509
110.61491 -82.061043 2.866493
110.60991 -82.071045 3.3014929
110.52491 -82.027039 2.143492
110.57991 -82.06604 3.0234931
110.50991 -82.394043 0.89849299
110.25391 -82.296043 -0.45850801
110.25991 -82.311043 1.715492
110.55391 -82.044037 2.4444921
110.39691 -82.014038 1.4954931
110.44491 -82.407043 0.32249099
110.67091 -82.159042 3.337492
110.47491 -82.013046 0.25549299
110.62191 -82.293045 1.696493
110.09491 -82.197044 2.1304929
110.24691 -82.154037 0.82149303
110.32891 -82.026047 3.7004931
110.42391 -82.407043 -0.73850602
110.34691 -82.362045 3.0264931
110.35391 -82.392044 1.963493
110.32491 -82.382042 -0.95250702
110.45791 -82.402039 0.98849303
110.46691 -82.403046 1.3324929
110.57092 -82.061043 0.395493
110.33492 -82.384041 0.85949302
110.35291 -82.031044 2.185493
110.08591 -82.26004 2.102493
110.61091 -82.116043 -0.892506
110.28291 -82.082047 1.442493
110.36491 -82.396042 1.111492
110.51091 -82.02504 -0.148506
110.45591 -82.01004 2.435493
110.26191 -82.145042 3.0394919
110.35991 -82.026047 1.464493
110.55791 -82.019043 2.9394929
110.42791 -82.002045 -0.39550799
110.49391 -82.397041 2.043493
110.26191 -82.111038 1.093493
110.28691 -82.101044 3.234493
110.55491 -82.056046 -1.570507
110.33091 -82.380043 1.490492
110.43791 -82.008041 0.730492
110.44191 -82.408043 0.57149303
110.27091 -82.084045 0.487492
110.31491 -82.055038 2.1934929
110.56991 -82.356041 -0.45450601
110.58591 -82.34404 1.127493
110.43991 -82.009041 0.56049299
110.38691 -82.401047 1.999493
110.43691 -82.410042 -1.734509
110.49791 -82.019043 1.425493
110.37691 -82.364044 3.0664921
110.29391 -82.069046 0.362492
110.52591 -82.028046 1.998493
110.32491 -82.377045 0.49049401
110.48792 -81.985046 2.9174919
110.29191 -82.358047 -1.025509
110.52191 -82.034042 -1.465508
110.27591 -82.351044 2.9044931
110.39891 -82.013046 1.2854919
110.29591 -82.363037 -1.3455091
110.31491 -82.022041 2.669493
110.41792 -82.011047 3.0074921
110.51791 -82.011047 2.283493
110.51991 -81.99704 2.959492
110.35191 -82.031044 2.333492
110.54191 -82.041046 0.054492999
110.63891 -82.148041 3.1334929
110.25591 -82.314041 -0.70750803
110.60591 -82.318039 -0.025509
110.32791 -82.043045 0.83949298
110.39491 -82.406044 -1.199509
110.57191 -82.358047 2.057493
110.34991 -82.016037 3.5264931
110.63891 -82.15004 3.1744919
110.41291 -82.042038 3.1374929
110.59792 -82.088043 0.77549201
110.54891 -82.081039 2.645493
110.25391 -82.12204 0.47049299
110.61491 -82.111038 2.352493
110.26791 -82.323044 1.047493
110.32491 -82.378044 1.702492
110.39891 -82.404037 1.0744931
110.26591 -82.321045 1.157492
110.38291 -82.018044 -1.059509
110.32591 -82.378044 1.628492
110.49091 -82.027039 2.650492
110.54292 -82.379044 1.339493
110.38391 -82.403046 -0.386509
110.25291 -82.294037 2.369493
110.31591 -82.374039 -0.245506
110.27591 -82.079041 1.676493
110.34991 -82.028046 -1.400509
110.28591 -82.343048 -0.457508
110.33091 -82.387039 -1.4145091
110.57791 -82.353043 1.681492
110.50191 -82.396042 1.445492
110.34491 -82.024048 -1.2895091
110.27291 -82.098038 2.356493
110.15791 -82.240044 2.0714929
110.25591 -82.314041 -0.74350703
110.53891 -82.379044 -1.093506
110.40791 -82.424042 2.965492
110.61091 -82.117043 -0.96050602
110.28391 -82.341042 2.395493
110.38992 -82.016037 2.2164919
110.29391 -82.360046 -1.1675071
110.35391 -81.975044 2.8414919
110.39791 -82.404037 1.184492
110.48291 -82.017044 -0.72050899
110.30191 -82.430038 2.9574931
110.52691 -82.375046 2.5914919
110.56891 -82.059044 0.59949303
110.36991 -82.438042 2.958492
110.54391 -82.376038 -1.451508
110.48091 -82.394043 3.020493
110.31291 -82.057037 2.3424931
110.27591 -82.335037 0.360493
110.37091 -82.398041 0.60749203
110.34892 -82.029037 -1.366508
110.42191 -82.009041 2.548492
110.25191 -82.128044 0.67949301
110.34291 -82.005043 1.613493
110.42391 -82.003044 0.313492
110.24591 -82.144043 1.065493
110.54591 -82.013046 3.6414931
110.26191 -82.112045 0.97349203
110.37891 -82.401047 0.0024910001
110.48591 -82.018044 -1.024506
110.01191 -82.258041 2.100492
110.25591 -82.119041 0.367493
110.38992 -82.015045 -1.843506
110.51691 -82.030045 -0.85550702
110.54292 -82.042038 -0.046509001
110.38992 -82.015045 -1.808506
110.55191 -82.051041 2.596493
110.33591 -82.383041 2.3684919
110.59091 -82.078041 1.721493
110.42191 -82.011047 2.586493
110.55692 -82.032043 3.261492
110.53191 -82.383041 -0.63250703
110.49391 -82.398041 -0.561508
110.27892 -82.306046 3.0424919
110.27791 -82.090042 1.947493
110.40091 -82.408043 -1.626507
110.25391 -82.294037 -0.422508
110.59591 -82.085037 1.086493
110.60691 -82.100044 -0.281506
110.38391 -82.403046 -0.35050601
110.70791 -82.162041 2.863493
110.55491 -82.371048 0.50749201
110.37091 -82.398041 0.642492
110.55291 -82.009041 2.886492
110.42691 -82.407043 -0.986507
110.26791 -82.335037 -1.708508
110.35991 -82.398041 -1.057507
110.41391 -82.011047 -0.41850701
110.26591 -82.321045 1.194492
110.49491 -82.017044 1.743492
110.59391 -82.082047 1.331493
110.31091 -82.376038 -1.756508
110.63091 -82.341042 3.254492
110.31991 -81.967041 2.839493
110.29991 -82.063042 -0.148506
110.45691 -82.403046 2.077492
110.62891 -82.148041 0.403492
110.27892 -82.340042 0.039494
110.46991 -82.012039 0.76549298
110.49391 -82.398041 -0.59650803
110.39291 -82.406044 -1.021507
110.32391 -82.377045 1.740492
110.38391 -82.401047 2.2664931
110.42391 -82.009041 2.3614919
110.23891 -82.256042 0.911493
110.38491 -82.401047 2.1894929
110.44991 -82.01004 -0.58650601
110.48591 -82.40004 0.0044940002
110.38091 -82.031044 3.0554919
110.54491 -82.063042 3.2604921
110.44791 -81.985046 3.672493
110.55491 -82.371048 0.54249197
110.36591 -82.397041 1.002493
110.45992 -82.014038 -1.772507
110.52191 -82.026047 2.4394929
110.35591 -82.022041 1.687492
110.49691 -82.397041 -0.80950898
110.42191 -81.981041 2.8414919
110.30091 -82.063042 3.6744919
110.43391 -82.009041 1.144493
110.30291 -82.059044 3.5094931
110.42591 -82.01004 -1.738506
110.38491 -82.02504 2.6674919
110.29991 -82.368042 -1.668507
110.59691 -82.398041 2.4704931
110.51191 -82.026047 -0.18250699
110.25491 -82.121048 0.40149301
110.55091 -82.040039 2.783493
110.53491 -82.035042 0.94049299
110.48891 -82.40004 -0.207508
110.39091 -82.015045 2.179493
110.59892 -82.321045 3.136492
110.61192 -82.306046 -0.382507
110.36791 -82.398041 0.85849202
110.35091 -82.333038 2.6354921
110.48891 -82.020042 -1.430508
110.40791 -82.011047 0.28949401
110.62191 -82.438042 2.932493
110.18791 -82.273041 2.1404929
110.46791 -82.011047 1.006493
110.25092 -82.299042 -0.208508
110.26691 -82.098038 2.669493
110.36691 -82.398041 0.93049198
110.67291 -82.166046 2.982492
110.25591 -82.113037 -0.69450802
110.36891 -82.022041 0.42549101
110.60391 -82.100044 -0.0095060002
110.31891 -82.373047 -0.38350701
110.25491 -82.222046 2.668493
110.26091 -82.319046 1.800493
110.28991 -82.355042 -0.81250799
110.30191 -82.061043 3.550493
110.46891 -82.405045 -1.376507
110.53991 -82.378044 -1.200508
110.40791 -82.380043 3.307493
110.40791 -82.426041 2.9244919
110.35491 -82.392044 1.887493
110.25391 -82.274048 -0.27950701
110.26492 -82.331039 -1.4925081
110.67291 -82.183044 2.794493
110.60691 -82.31604 -0.096507996
110.27291 -82.100044 2.432493
110.55391 -82.055038 -1.4675061
110.25191 -82.295044 -0.31550601
110.36091 -82.020042 3.2474921
110.53991 -82.379044 -1.165508
110.47491 -82.403046 0.78849202
110.58191 -82.077042 -0.99250799
110.53291 -82.033043 1.182493
110.36091 -82.399048 -1.1285059
110.52291 -82.026047 2.327492
110.44191 -82.386047 3.307493
110.45591 -82.406044 -0.420506
110.43192 -82.009041 1.423492
110.62191 -82.011047 2.468493
110.62592 -82.134041 0.95549202
110.28391 -82.341042 -0.31550601
110.39291 -82.403046 1.550493
110.63191 -82.160042 -0.040507998
110.31391 -82.373047 -0.103508
110.55391 -82.37204 0.578493
110.61391 -82.304047 2.1894929
110.45191 -81.970047 3.3424931
110.28491 -82.34404 2.278492
110.57092 -82.358047 2.0954931
110.33191 -82.040039 0.39349401
110.29591 -82.068039 0.225494
110.61292 -82.123047 -1.165508
110.42791 -82.405045 1.588493
110.44191 -82.009041 0.25549299
110.32491 -82.382042 -0.98850602
110.56191 -82.052048 1.396492
110.24391 -82.281044 0.40049401
110.62491 -82.133041 1.025492
110.41391 -82.01004 -0.351509
110.54091 -82.040039 0.15549099
110.56491 -82.364044 -0.099505998
110.54292 -82.042038 -0.080509
110.45091 -82.376038 2.7454929
110.64391 -82.071045 3.340492
110.45491 -82.012039 -1.159508
110.41591 -82.406044 -0.173508
110.34691 -82.024048 -0.81350702
110.36292 -82.023041 3.3684919
110.46891 -82.405045 -1.412506
110.42491 -82.405045 1.849493
110.25291 -82.126038 0.57549298
110.30391 -82.426041 2.839493
110.58691 -82.087044 -1.677509
110.25391 -82.297043 2.2524929
110.58492 -82.083038 -1.4365081
110.55291 -82.052048 -1.262508
110.61991 -82.121048 1.695492
110.53991 -82.380043 1.561493
110.34691 -82.398041 2.419493
110.60591 -82.317047 -0.060509
110.60491 -82.319046 0.010494
110.25791 -82.320038 -0.920506
110.34491 -82.024048 -1.170506
110.38191 -81.978043 3.590492
110.42091 -82.01004 -1.193508
110.52291 -82.036041 -1.602509
110.54191 -82.379044 1.413492
110.46491 -82.404037 -1.0925061
110.46391 -82.011047 1.459492
110.30291 -82.060043 -0.52050799
110.37491 -82.399048 0.321491
110.52391 -82.037041 -1.7055089
110.52491 -82.03804 -1.809509
110.38491 -82.016037 -1.262508
110.35391 -82.030045 2.112494
110.49591 -82.397041 1.8544919
110.59991 -82.091042 0.56949198
110.54491 -82.044037 -0.31650901
110.45291 -82.406044 2.344492
110.31491 -82.376038 -1.007507
110.42191 -82.011047 -1.2615089
110.36691 -82.022041 0.66449201
110.51191 -82.026047 -0.216507
110.35891 -82.027039 1.570492
110.49091 -82.001038 2.468493
110.43091 -82.002045 -0.86750799
110.40891 -81.984039 2.4404931
110.25191 -82.253044 3.343493
110.34991 -82.028046 -1.468506
110.48091 -81.989044 3.673492
110.35291 -82.393044 -0.52750802
110.30491 -82.052048 3.344492
110.25691 -82.30304 1.982492
110.26492 -82.133041 -0.33750901
110.31591 -82.371048 2.3874929
110.27691 -82.092041 2.0584929
110.45091 -82.011047 -0.68750799
110.22991 -82.243042 -0.781506
110.25591 -82.299042 2.097492
110.55491 -82.056046 -1.536507
110.27691 -82.081039 1.4384919
110.37091 -82.021042 0.256493
110.38891 -82.402039 1.849493
110.66691 -82.170044 3.587492
110.45291 -82.406044 2.3834929
110.44691 -81.990044 3.6344931
110.36391 -82.023041 0.97449303
110.25092 -82.131042 0.74849302
110.47091 -82.012039 0.69649303
110.31591 -82.047043 -1.712509
110.28991 -82.073044 0.77549201
110.41491 -82.003044 1.731493
110.42191 -82.407043 -0.63250703
110.32791 -82.379044 1.442493
110.60191 -82.324043 0.153492
110.47191 -82.383041 3.123493
110.47591 -82.403046 0.68049198
110.31391 -82.377045 -1.257507
110.23491 -82.12204 2.669493
110.51091 -82.394043 -1.773506
110.61691 -82.115044 2.094492
110.31091 -82.370041 0.144493
110.38491 -82.403046 -0.421509
110.58591 -82.084045 -1.504509
110.28291 -82.084045 1.5134929
110.35091 -82.027039 -1.571507
110.63091 -82.153046 0.232494
110.46991 -82.011047 0.86849201
110.42291 -82.406044 2.0004921
110.31191 -82.377045 -1.507507
110.55791 -82.048042 1.9664921
110.60091 -82.09404 0.364494
110.22691 -82.201042 2.4674931
110.41792 -82.407043 -0.31450701
110.40291 -82.388046 3.5954931
110.55692 -82.370041 0.39949399
110.51091 -82.393044 0.79049301
110.29391 -82.087044 2.702492
110.35891 -82.022041 2.405493
110.28291 -82.099045 3.6334929
110.35691 -82.028046 1.7854919
110.24591 -82.300041 2.8414919
110.38491 -82.401047 2.1514931
110.28791 -82.346039 2.048492
110.27191 -82.083038 0.72449303
110.62091 -82.12204 1.552492
110.70691 -82.167038 2.9434929
110.52892 -82.386047 2.3154931
110.25891 -82.111038 0.25849199
110.33691 -82.391037 -1.881508
110.50691 -82.022041 0.42549101
110.47891 -82.004044 1.928493
110.50991 -82.394043 0.86249399
110.56191 -82.051041 1.501493
110.59491 -82.083038 1.226492
110.24091 -82.267044 3.3854921
110.35591 -82.002045 -0.46950901
110.49891 -82.396042 1.668493
110.33091 -82.381042 1.222492
110.40291 -82.012039 0.86849201
110.30191 -82.374039 3.386492
110.55791 -82.049042 1.930492
110.27391 -82.331039 0.54049301
110.55091 -82.375046 0.83049202
110.43891 -82.407043 0.75149298
110.27991 -82.078041 -1.821507
110.31491 -82.376038 -1.132507
110.60391 -82.099045 0.058490999
110.33591 -82.38504 0.78749299
110.61491 -82.133041 -1.544506
110.47891 -82.403046 0.43049201
110.29691 -82.067047 0.15749399
110.36791 -82.402039 -1.699509
110.31691 -82.054047 1.973492
110.40691 -82.012039 0.39049101
110.39391 -82.403046 1.5134929
110.53391 -82.035042 1.044493
110.66291 -82.224045 2.136492
110.31091 -82.05304 -1.2335089
110.42591 -82.009041 2.067493
110.51091 -82.394043 0.82649201
110.56191 -82.356041 2.798492
110.44592 -82.009041 -0.216507
110.50191 -82.019043 1.0074919
110.34491 -82.369041 2.781492
110.29091 -82.35704 -0.95450598
110.23391 -82.093048 2.468493
110.56391 -82.054047 1.256493
110.52691 -82.014038 0.84849203
110.52091 -82.012039 1.805492
110.56291 -82.05304 1.291492
110.38291 -81.976044 3.5084929
110.49991 -82.019043 1.215492
110.46591 -82.011047 1.248493
110.61391 -82.207047 3.139492
110.42691 -82.405045 1.663492
110.27291 -82.039047 3.2604921
110.49191 -82.399048 -0.45550901
110.49091 -82.399048 -0.38450599
110.35191 -82.028046 -1.6395071
110.28891 -82.355042 -0.77650797
110.57291 -82.063042 0.15749399
110.30891 -82.054047 -1.029507
110.42791 -82.407043 -1.021507
110.24291 -82.278046 0.473492
110.57391 -82.065048 -0.011509
110.60991 -82.312042 2.3804929
110.62791 -82.333038 3.5494919
110.37791 -82.354042 3.1114919
110.28691 -82.351044 -0.56450701
110.44791 -82.396042 2.777493
110.26691 -82.334045 -1.6365089
110.38291 -82.401047 2.304493
110.52591 -82.029037 1.926493
110.36591 -82.401047 -1.484509
110.55692 -82.060043 -1.881508
110.30991 -82.05304 -1.1305079
110.27991 -82.079041 -1.786507
110.58891 -82.076042 1.901493
110.47991 -82.004044 2.1674919
110.53691 -82.382042 1.784492
110.52691 -82.030045 1.8544919
110.26492 -82.320038 1.231493
110.55591 -82.046043 2.185493
110.55692 -82.047043 2.0754931
110.52991 -82.38504 2.2394919
110.50791 -82.394043 1.0074919
110.36391 -82.40004 -1.3425061
110.33191 -82.383041 3.6354921
110.51791 -82.390045 0.29049301
110.27591 -82.093048 2.1324921
110.35291 -82.004044 -0.053509001
110.37091 -82.021042 0.28949401
110.38691 -81.988037 2.921494
110.23792 -82.239044 3.672493
110.40591 -81.98204 2.913492
110.28091 -82.343048 -0.067509003
110.26591 -82.332047 -1.564507
110.54391 -82.376038 -1.487507
110.62391 -82.130043 1.1994931
110.60991 -82.313042 -0.275509
110.53791 -82.037041 0.563492
110.47292 -82.406044 -1.735508
110.36891 -82.383041 3.511492
110.62391 -82.130043 1.2354929
110.56291 -82.05304 1.361492
110.28691 -82.351044 -0.59950602
110.25092 -82.113037 -1.8865089
110.59091 -82.078041 1.649492
110.63491 -82.322044 3.2204931
110.15491 -82.265045 2.103493
110.34892 -82.029037 -1.332508
110.26891 -82.337044 -1.853508
110.42291 -82.405045 1.962492
110.38992 -82.402039 1.811493
110.58691 -82.073044 2.192493
110.27791 -82.338043 0.181492
110.26891 -82.128044 2.048492
110.45591 -82.012039 -1.362507
110.38691 -82.016037 -1.432507
110.39691 -82.013046 1.460493
110.61991 -82.295044 1.809492
110.10691 -82.192047 0.89949203
110.28191 -82.345047 -0.17450701
110.56791 -82.358047 -0.276508
110.40591 -82.015045 3.389492
110.55591 -82.033043 1.336493
110.48191 -82.016037 -0.58650601
110.27791 -82.339043 0.146492
110.51291 -82.392044 0.647493
110.34091 -82.034042 -0.52050799
110.58991 -82.01004 2.469492
110.48692 -82.019043 -1.125507
110.47191 -82.004044 0.137493
110.42391 -82.01004 -1.5675091
110.60791 -82.314041 -0.16850699
110.45291 -82.011047 -0.95650899
110.36791 -82.022041 0.52849197
110.52991 -82.031044 1.497492
110.55591 -82.058044 -1.708508
110.28091 -82.356041 2.468493
110.64691 -82.12204 2.4674931
110.46691 -82.011047 1.179493
110.59591 -82.086044 1.0174921
110.47191 -82.004044 0.256493
110.30692 -82.043045 3.2204931
110.33591 -82.390045 -1.809509
110.45691 -82.009041 2.2864931
110.55091 -82.03804 2.820492
110.53091 -82.383041 -0.59650803
110.62191 -82.294037 1.733492
110.41191 -82.405045 0.109493
110.19191 -81.939041 2.6444931
110.33492 -82.03804 0.087494001
110.37191 -82.398041 0.57149303
110.57991 -82.073044 -0.72150803
110.45591 -82.404037 0.61349303
110.58691 -82.338043 -1.527508
110.65591 -82.204041 2.8154931
110.36491 -82.40004 -1.413506
110.48692 -82.40004 -0.101509
110.28691 -82.078041 1.124493
110.45491 -82.404037 2.2304921
110.50191 -82.020042 0.97249198
110.50791 -82.024048 0.22249199
110.37592 -82.40004 0.215492
110.52091 -81.995041 2.9204919
110.30391 -82.373047 3.304493
110.60291 -82.322044 0.117493
110.18891 -82.215042 2.469492
110.47491 -82.013046 0.22149301
110.23091 -82.177048 -1.662506
110.46991 -82.003044 -0.21950901
110.64591 -82.162041 -1.582508
110.58991 -82.338043 3.587492
110.39591 -82.014038 1.637493
110.41391 -82.003044 1.968493
110.26991 -82.081039 3.001493
110.55491 -82.045044 2.2954919
110.25791 -82.115044 0.16149101
110.43991 -82.387039 3.472492
110.44891 -82.01004 -0.55250901
110.50891 -82.407043 3.5524919
110.25191 -82.292038 2.409492
110.38291 -82.403046 -0.31550601
110.61691 -82.115044 2.057493
110.36991 -82.021042 0.357494
110.55692 -82.048042 2.0394919
110.53991 -82.039047 0.29149199
110.56291 -82.365044 0.0074919998
110.40991 -82.405045 0.28649101
110.46991 -82.405045 -1.448509
110.33191 -82.040039 0.42749399
110.23692 -82.268044 0.98249203
110.33891 -82.035042 -0.250507
110.38992 -82.016037 2.290493
110.40891 -82.425041 2.8454931
110.26191 -82.326042 -1.241508
110.35391 -82.023041 1.209492
110.61292 -82.308044 2.2264919
110.33191 -82.382042 1.112494
110.35091 -82.023041 0.37549201
110.55692 -82.048042 2.0034921
110.37191 -82.021042 0.15449101
110.30391 -82.059044 -0.55450797
110.32391 -82.047043 1.292492
110.26191 -82.326042 -1.206509
110.47591 -82.403046 -1.879509
110.40491 -82.011047 0.66349202
110.48591 -82.013046 2.8134921
110.57791 -82.071045 -0.51850897
110.35291 -82.027039 -1.777508
110.46391 -82.01004 1.5644929
110.26391 -82.318039 1.379492
110.48091 -82.402039 0.28849399
110.59091 -82.078041 1.685493
110.45892 -82.403046 1.926493
110.47091 -82.403046 1.077492
110.39591 -82.014038 1.566492
110.37991 -82.018044 -0.72150803
110.52291 -82.035042 -1.534508
110.36791 -82.38504 3.594492
110.43192 -82.409042 -1.340508
110.33492 -82.390045 -1.737507
110.40191 -82.012039 0.97249198
110.40991 -82.405045 0.32249099
110.52391 -82.03804 -1.740509
110.49391 -82.016037 1.851492
110.34892 -82.391037 2.3064921
110.51391 -82.027039 -0.41750699
110.32491 -82.377045 0.61549199
110.34792 -82.392044 -0.103508
110.43291 -82.410042 -1.447506
110.36791 -82.022041 0.59649301
110.47191 -82.012039 0.628492
110.55891 -82.368042 0.292492
110.25691 -82.117043 0.26449201
110.50991 -82.024048 0.053493001
110.67491 -82.259041 3.6704919
110.49591 -82.396042 1.8924921
110.33392 -82.03804 0.25749201
110.35691 -82.393044 1.663492
110.54491 -82.405045 3.5554919
110.45091 -82.406044 -0.067509003
110.37891 -82.002045 3.6424921
110.23591 -82.278046 -1.462509
110.64791 -82.26004 2.836493
110.45691 -82.406044 -0.561508
110.39591 -82.403046 1.330492
110.34591 -82.024048 -1.051506
110.42891 -82.407043 -1.0925061
110.47292 -82.406044 -1.699509
110.49891 -82.018044 1.284492
110.27491 -82.116043 3.6174929
110.70591 -82.187042 2.833492
110.44091 -82.009041 0.45849201
110.46391 -82.403046 1.553493
110.64491 -82.10704 2.844492
110.47591 -82.013046 0.086493999
110.40591 -82.382042 3.472492
110.46491 -82.399048 1.9894921
110.33091 -82.041046 0.59849203
110.42091 -82.406044 -0.49150801
110.32791 -82.042038 0.874493
110.29691 -82.387039 3.6744919
110.47392 -82.013046 0.356491
110.48692 -82.404037 2.4634931
110.52391 -82.006042 2.469492
110.31591 -82.055038 2.1204929
110.29191 -82.072044 0.63749301
110.46991 -82.403046 1.113493
110.58091 -82.346039 -1.1675071
110.24191 -82.271042 0.65449297
110.55491 -82.045044 2.2584929
110.53391 -82.383041 1.972492
110.38091 -82.018044 -0.85650599
110.62691 -82.280045 1.436493
110.06091 -82.196045 2.094492
110.41291 -82.406044 0.038493998
110.31491 -82.373047 -0.17450701
110.27191 -82.330048 0.64849299
110.32791 -82.384041 -1.201508
110.26492 -82.318039 1.305492
110.46291 -82.01004 1.600492
110.58492 -82.346039 1.200493
110.51991 -82.389038 0.18349101
110.39191 -82.405045 -0.95150799
110.44491 -82.01004 -0.082507998
110.29292 -82.353043 1.595493
110.55391 -82.044037 2.406492
110.51191 -82.026047 -0.24950799
110.20691 -82.085037 2.4674931
110.30291 -82.369041 -1.884506
110.49291 -82.024048 -1.876507
110.47991 -82.015045 -0.38450599
110.12991 -82.19104 2.090492
110.29791 -82.358047 1.1894929
110.61491 -82.130043 -1.440506
110.32191 -82.378044 -0.70550901
110.36091 -82.026047 1.358492
110.66591 -82.173042 3.6704919
110.57691 -82.351044 -0.88150799
110.56791 -82.359039 -0.31250799
110.62391 -82.28804 1.621492
110.42391 -82.011047 -1.5335079
110.57092 -82.360046 2.1334929
110.37191 -82.483047 2.471493
110.36591 -82.397041 1.038492
110.41691 -82.406044 -0.209507
110.62991 -82.15004 0.335491
110.44291 -82.425041 2.9264929
110.38191 -82.369041 2.6644919
110.25491 -82.089043 2.965492
110.36292 -82.024048 1.113493
110.37091 -82.021042 0.22249199
110.33591 -81.983047 2.8644919
110.32591 -82.044037 1.047493
110.58591 -82.086044 -1.573509
110.53291 -82.382042 -0.73850602
110.29991 -82.072044 -0.317509
110.24391 -82.282043 0.364494
110.33091 -82.040039 0.53049302
110.57791 -82.350044 -0.98850602
110.35491 -82.392044 1.849493
110.48991 -82.399048 -0.27850699
110.42391 -82.01004 -1.465508
110.59391 -82.083038 1.261492
110.44891 -82.01004 -0.519508
110.50092 -82.397041 -1.057507
110.49191 -82.023041 -1.773506
110.27991 -82.086044 1.7294919
110.38391 -82.401047 2.227493
110.47991 -82.014038 -0.317509
110.41291 -82.011047 -0.317509
110.41091 -82.405045 0.180492
110.32591 -82.383041 -1.059509
110.61192 -82.119041 -1.028507
110.26191 -82.132042 3.139492
110.25991 -82.140045 3.692493
110.29991 -82.065048 -0.24950799
110.39191 -82.402039 1.624493
110.26291 -82.110046 1.451492
110.31791 -82.374039 -0.50850701
110.51291 -82.408043 3.3024919
110.37391 -82.399048 0.39249399
110.28591 -82.348038 -0.493507
110.48191 -81.986038 3.590492
110.24691 -82.142044 1.030493
110.28991 -82.356041 -0.847507
110.27591 -82.083038 -1.4425091
110.43192 -82.406044 1.330492
110.45491 -82.406044 -0.385506
110.62891 -82.144043 0.54149199
110.25491 -82.311043 -0.636509
110.52892 -82.031044 1.639492
110.40991 -82.011047 0.086493999
110.39991 -82.013046 1.145493
110.43291 -82.009041 1.353493
110.58392 -82.347046 1.310493
110.51791 -82.037041 2.744493
110.55692 -82.370041 0.43549299
110.63992 -82.092041 3.5524919
110.48991 -82.015045 2.3984931
110.55091 -82.051041 -1.059509
110.42591 -82.405045 1.774492
110.34391 -82.032043 -0.82450902
110.34091 -82.034042 -0.486507
110.24191 -82.269043 3.3014929
110.55391 -82.054047 -1.433506
110.62491 -82.345047 3.671494
110.34691 -82.034042 2.8254931
110.51492 -82.392044 0.50449401
110.53791 -82.03804 0.495491
110.47292 -82.004044 0.495491
110.41792 -82.405045 2.343493
110.25991 -82.323044 -1.063507
110.41792 -82.003044 1.2584929
110.24691 -82.229042 2.5714929
110.46191 -82.401047 1.7394921
110.52491 -82.03804 -1.774506
110.51391 -82.046043 3.1744919
110.56991 -82.060043 0.49749401
110.51191 -82.026047 -0.283508
110.29991 -82.074043 -0.351509
110.27391 -82.333038 0.468494
110.38491 -82.017044 -1.228508
110.30991 -82.05304 -1.198509
110.44592 -82.407043 0.28749099
110.31691 -82.046043 -1.919506
110.27892 -82.088043 1.838493
110.33791 -82.476044 2.472492
110.43091 -82.409042 -1.305508
110.38791 -82.403046 -0.63350701
110.48491 -82.014038 3.0064931
110.59391 -82.333038 0.65649199
110.19891 -82.342041 -0.41850701
110.59892 -82.090042 0.63749301
110.50591 -82.022041 0.527493
110.29491 -82.362045 -1.238506
110.52591 -82.387039 -0.20650899
110.35891 -82.394043 1.514492
110.26691 -82.05304 3.671494
110.47491 -82.013046 0.28949401
110.58392 -82.082047 -1.333508
110.28391 -82.343048 2.356493
110.62592 -82.284042 1.510492
110.49891 -82.397041 -0.91550797
110.52391 -82.027039 2.2534921
110.45391 -82.012039 -1.057507
110.55391 -82.054047 -1.399506
110.27991 -82.088043 1.802492
110.45391 -82.405045 -0.31450701
110.50491 -82.022041 0.59549302
110.40791 -82.011047 0.22149301
110.66792 -82.168045 3.5034921
110.28191 -82.307037 2.7604921
110.38191 -82.401047 2.4204919
110.37791 -82.386047 2.817493
110.29691 -82.365044 -1.4175071
110.50891 -82.394043 0.97149301
110.25491 -82.308044 -0.56550598
110.30991 -82.368042 0.216492
110.59391 -82.335037 0.69249302
110.28191 -82.084045 1.549492
110.40291 -82.406044 0.82249302
110.55591 -82.035042 2.298492
110.57092 -82.062042 0.327492
110.60791 -82.078041 3.4244919
110.36091 -82.02504 1.288492
110.41691 -82.395042 2.540493
110.33392 -82.381042 1.991493
110.30091 -82.373047 3.4704931
110.52991 -82.031044 1.533493
110.27491 -82.333038 0.432491
110.31991 -82.374039 2.1184919
110.32491 -82.045044 1.222492
110.28591 -82.341042 -0.422508
110.33392 -82.450043 2.9514921
110.50591 -82.022041 0.459492
110.34091 -82.356041 3.1274929
110.55491 -82.057037 -1.604507
110.42791 -82.407043 -1.056507
110.24291 -82.276047 0.50949103
110.26291 -82.328041 -1.313507
110.39391 -82.014038 1.780493
110.32291 -82.376038 1.815493
110.31791 -82.052048 1.828493
110.28691 -82.077042 1.053493
110.57591 -82.354042 1.793493
110.30091 -82.074043 -0.45350599
110.58091 -82.077042 -0.95850801
110.62691 -82.138046 0.81649202
110.50291 -82.020042 0.800493
110.45391 -82.404037 2.268492
110.64191 -82.075043 3.5034921
110.50791 -82.023041 0.28949401
110.31891 -82.051041 1.791492
110.56591 -82.360046 2.4414921
110.43391 -82.009041 1.214493
110.46491 -82.011047 1.423492
110.26191 -82.117043 3.2204931
110.60991 -82.312042 2.4204919
110.42391 -82.011047 -1.499508
110.26891 -82.368042 3.2634931
110.57291 -82.35704 1.981493
110.61091 -82.115044 -0.858509
110.45992 -82.009041 1.958492
110.45791 -82.009041 2.1764929
110.20491 -82.268044 -1.644508
110.32391 -82.046043 1.2574919
110.46791 -82.403046 1.259493
110.34491 -82.032043 -0.89150602
110.34391 -82.024048 -1.527508
110.45591 -82.012039 -1.328506
110.45892 -82.405045 -0.66750699
110.26391 -82.108047 1.930492
110.28391 -82.315048 2.5594921
110.58392 -82.031044 2.932493
110.27191 -82.090042 -1.065506
110.50891 -82.394043 0.93549299
110.39591 -82.403046 1.366493
110.50291 -82.396042 -1.199509
110.46591 -82.005043 -1.409508
110.64891 -82.227043 3.1344931
110.25291 -82.114044 -1.409508
110.35191 -82.031044 2.296494
110.48391 -82.40004 0.110493
110.28091 -82.309044 2.7994919
110.19691 -82.185043 -1.629509
110.46291 -82.399048 1.738493
110.30291 -82.060043 3.468493
110.43791 -82.407043 0.82249302
110.54491 -82.376038 -1.559509
110.61691 -82.145042 -1.8585089
110.57791 -82.071045 -0.58650601
110.49991 -82.397041 -1.021507
110.58191 -82.060043 2.827492
110.45191 -82.406044 -0.173508
110.33392 -82.389038 -1.701508
110.55191 -82.374039 0.72249198
110.38791 -82.016037 -1.568508
110.60591 -82.103043 -0.247509
110.54191 -82.041046 0.020493001
110.43491 -82.009041 1.109493
110.61991 -82.297043 1.846493
110.52991 -82.336044 2.7234919
110.25891 -82.251038 3.4734919
110.39791 -82.404037 1.147493
110.43391 -82.406044 1.1484931
110.48291 -82.401047 0.217491
110.57591 -82.067047 -0.24850801
110.60091 -82.093048 0.432491
110.44991 -82.01004 -0.62050599
110.50191 -82.396042 1.408493
110.64991 -82.15004 -1.6565059
110.43791 -82.407043 0.89449298
110.32291 -81.964043 2.498493
110.42091 -82.405045 2.1514931
110.31591 -82.047043 -1.746506
110.52491 -82.028046 2.107492
110.24991 -82.298042 -0.173508
110.50591 -82.396042 -1.449509
110.41691 -82.015045 3.048492
110.62491 -82.287041 1.547493
110.48091 -82.015045 -0.41850701
110.44291 -82.009041 0.22149301
110.55692 -82.008041 2.469492
110.22991 -82.179047 -1.5925061
110.36891 -82.022041 0.49449199
110.28991 -82.349045 1.858492
110.48291 -82.017044 -0.75450897
110.20791 -82.184044 0.86149198
110.42691 -82.404037 1.700493
110.36292 -82.02504 1.1484931
110.52991 -82.032043 1.462492
110.41891 -82.01004 -0.95750803
110.28491 -82.339043 -0.386509
110.34792 -82.030045 -1.196507
